18.456430 -5.221588 220.626480 -5.267140 -3.178340 1.033785 
18.926785 -6.011894 220.947235 -5.471991 -3.077551 0.198053 
18.225052 -4.850027 220.672516 -4.932592 -3.470611 1.456969 
17.744474 -4.126381 221.091415 -4.820007 -3.994154 0.333177 
17.427650 -3.766079 221.108810 -4.495951 -4.323706 0.510411 
17.321079 -5.446501 223.758072 -0.554834 0.867824 -6.184496 
4.432581 4.818595 236.445877 -1.207649 4.852591 3.710006 
4.083701 4.968647 236.198486 -0.276920 4.743112 4.069533 
5.281515 5.137564 236.727448 -4.052084 3.769529 2.897470 
5.475634 5.281815 236.849442 -1.085690 4.877859 1.070186 
5.067759 5.017383 236.624359 -3.356210 4.228095 3.154113 
4.087520 4.980111 236.186386 0.140768 3.509502 -0.821485 
4.676316 5.085939 236.246857 -1.192205 2.944567 -1.498717 
3.754846 5.016892 236.164413 0.719487 4.214369 -1.420163 
3.546114 5.012508 236.221695 1.198644 4.628765 4.051260 
4.614526 5.031740 236.274017 -1.878994 4.330035 4.067782 
5.099911 5.197189 236.442810 -3.440169 3.860811 3.491577 
5.421394 5.296977 236.736847 -0.979406 4.832817 1.300970 
3.957085 4.786314 236.406403 0.373506 4.953085 3.752259 
3.373131 4.581849 236.857300 1.504354 5.146704 3.172192 
3.483333 4.842954 236.438782 1.228211 4.755382 3.886815 
3.471724 4.813933 236.479614 1.287507 4.961843 3.576841 
4.028116 4.785473 236.407715 -0.323922 5.010859 3.702680 
4.569849 4.845112 236.471176 -1.900554 4.775449 3.546561 
4.882635 4.937953 236.554977 -2.729817 4.433565 3.426660 
5.147459 4.649353 237.259933 -3.533688 4.333391 2.726255 
3.242011 4.224771 237.747879 2.207695 5.593335 1.701410 
4.680570 4.264363 237.480637 -1.972269 5.334328 2.543012 
5.493544 4.823107 237.546356 -4.517171 3.605304 2.360884 
3.232110 4.107155 238.260117 2.408164 5.689986 0.888144 
3.711218 4.123407 237.614532 1.036144 5.758066 2.101915 
5.111979 4.339063 237.780518 -3.112918 4.831671 2.424396 
3.746794 3.857620 238.767929 1.582141 5.975130 0.562949 
4.182120 3.980628 237.942551 -0.221385 5.924998 1.871614 
3.303516 4.024030 239.001541 2.639416 5.657636 -0.116727 
3.848626 3.814464 239.236359 1.672509 5.983693 -0.099985 
4.224684 3.825741 238.545746 0.096824 6.091429 1.240443 
4.311140 3.757691 238.958542 0.234060 6.170446 0.755318 
5.534854 4.512359 238.092255 -4.034527 3.993215 2.602853 
3.425409 4.013034 239.511658 2.724821 5.551110 -0.888702 
3.565694 4.027089 239.902283 2.695634 5.477409 -1.364312 
3.970793 3.801588 239.598068 1.688258 5.953856 -0.574104 
4.871278 3.798416 238.969193 -1.127213 5.969347 1.352307 
5.297438 4.020989 238.692871 -2.464496 5.280649 2.196676 
5.594731 4.426708 238.306305 -3.789658 4.110966 2.769875 
4.479286 3.713465 239.423218 0.381348 6.208814 0.256694 
5.971358 4.814213 238.373932 -4.239706 2.956326 3.517847 
4.100787 3.794603 239.837341 1.768041 5.924839 -0.745612 
4.042495 3.801395 239.762207 1.737436 5.921495 -0.801164 
4.522252 3.708178 239.480255 0.474339 6.202466 0.392539 
4.954218 3.777453 239.132080 -0.860275 5.991406 1.503221 
5.342130 4.001422 238.789383 -2.322878 5.331450 2.235033 
5.700573 4.354745 238.544205 -3.457227 4.229942 2.997533 
5.716434 4.349707 238.568512 -3.233587 4.200147 3.292634 
5.039710 3.758144 239.240555 -0.410719 5.935969 1.903897 
5.421848 3.978012 238.901413 -1.590181 5.248504 2.996818 
4.414012 3.866174 240.807709 2.714003 5.452002 -1.503605 
4.645181 3.664577 240.354767 2.240318 5.799986 -0.518923 
5.702308 3.713002 239.333832 0.780184 5.131547 3.525483 
5.966670 4.026316 238.979706 -0.064287 4.195866 4.665380 
5.564842 3.906243 239.067764 -0.590182 5.081469 3.594751 
6.026401 4.110919 238.914627 -0.572069 3.726323 5.011593 
6.218531 4.418740 238.743866 -0.903423 2.982332 5.447874 
6.136012 4.687465 238.579880 -2.336226 2.707622 5.133993 
5.870141 4.248810 238.769974 -1.536976 4.012092 4.541873 
6.435521 4.841228 238.631927 -1.769319 1.656355 5.787591 
6.294208 5.051668 238.517410 -0.350160 3.741403 2.543754 
5.987112 4.807959 238.397171 -3.994513 2.928696 3.824903 
6.099843 5.115583 238.339371 -1.080701 4.019637 1.880310 
6.081748 5.121198 238.314911 -1.195001 4.068144 1.723109 
6.052686 5.130068 238.272141 -1.289131 4.054245 1.609282 
5.940304 4.830218 238.321045 -4.403771 2.930306 3.336673 
5.994135 5.147560 238.177048 -1.350590 4.060350 1.518414 
5.784720 5.091114 237.815292 -5.015631 2.779948 2.555913 
5.510099 4.962097 237.368820 -4.543523 3.463433 2.484145 
5.828719 4.948690 238.047318 -4.843356 2.872886 2.760468 
6.189514 5.086725 238.436325 -0.668096 3.912227 2.293905 
6.279274 4.528217 238.703018 -1.380923 2.448155 5.608936 
5.765939 3.779166 239.238586 0.286379 4.779117 4.050273 
4.928562 3.602775 239.890945 1.388946 6.013629 0.985227 
4.605445 3.803901 240.930252 2.759316 5.432520 -1.495231 
5.118126 3.492108 240.626053 2.542280 5.688121 -0.494306 
6.031317 4.781636 238.458267 -3.424124 2.854219 4.395611 
5.242956 3.685391 239.450989 0.413181 5.767496 2.379032 
4.644274 3.685607 239.624954 0.798680 6.155637 0.664113 
4.266127 3.766013 240.024872 1.941874 5.891428 -0.621632 
5.761132 4.328205 238.633743 -2.646103 4.149622 3.853314 
5.362926 3.997016 238.820038 -2.130317 5.306037 2.496804 
4.924116 3.781929 239.090256 -1.008076 6.007987 1.296112 
5.663151 4.373968 238.471146 -3.613990 4.185447 2.872348 
4.417433 3.723358 239.278854 0.293635 6.199059 0.404474 
5.882739 4.874657 238.202774 -4.606811 2.876194 3.115402 
5.217539 4.075506 238.475754 -2.603033 5.200977 2.246032 
4.778917 3.846893 238.698624 -1.227210 5.904141 1.557179 
5.150991 4.164929 238.195709 -2.815402 5.069066 2.298739 
4.703881 3.930613 238.350464 -1.404171 5.784004 1.833274 
5.493368 4.675986 237.772644 -4.310455 3.785026 2.470924 
5.120564 4.497935 237.488388 -3.347067 4.613506 2.532004 
4.665254 4.102163 237.838409 -1.719044 5.559559 2.219637 
4.200866 4.136883 237.523575 -0.480493 5.722909 2.396202 
3.693866 3.982329 238.086227 1.283162 5.908687 1.404402 
4.716194 4.421715 237.201935 -2.164593 5.026654 2.938769 
4.242307 4.292912 237.198303 -0.688643 5.394160 2.977865 
3.754369 4.270707 237.249252 0.746973 5.483468 2.798011 
9.650000 7.992624 236.605118 2.105491 1.662999 -1.707892 
6.241133 5.319942 236.302063 -2.551235 1.930110 -3.467214 
9.650000 5.050149 236.356445 1.172235 1.629176 -5.605069 
6.081860 5.171728 236.285934 -1.309141 3.040515 -3.526421 
6.171683 5.234787 236.293289 -1.996715 2.576951 -3.502862 
5.869059 5.128798 236.277481 0.322310 3.352807 -3.531054 
5.074447 5.331604 236.276627 -1.586779 2.289949 -1.399453 
5.134818 5.383052 236.282349 -0.779923 2.240099 -1.059765 
14.350000 3.790788 236.356445 2.715063 1.153899 -2.757463 
14.350000 2.493884 236.246857 3.428997 0.526690 -3.078840 
6.300000 9.190527 236.630493 -0.982316 1.536099 -1.034092 
6.300000 5.529815 236.321136 -3.051894 0.519186 -3.290197 
6.241133 5.357838 237.193451 -5.294566 3.347479 0.039338 
6.270782 5.416588 237.190964 -5.897182 2.033777 0.171642 
5.912978 5.167094 237.201569 0.153441 6.226148 -0.195422 
5.978399 5.135492 236.280518 -0.517961 3.305452 -3.527455 
5.978399 5.174635 237.201248 -1.306510 6.119903 -0.171668 
6.285002 5.420805 236.311584 -2.906658 1.155197 -3.451648 
6.612991 8.940112 237.676559 -1.010120 2.769350 2.728413 
6.444678 9.024184 237.497009 -1.604969 2.731183 2.017380 
6.518083 5.469758 237.738159 -4.358787 0.728236 4.444883 
6.335089 5.557158 237.419525 -5.932957 0.661300 1.904280 
6.337027 9.092029 237.275635 -1.957945 2.684048 1.181383 
6.300000 9.137366 237.032928 -2.075780 2.795668 0.572760 
6.308747 5.566720 237.302658 -6.162048 0.632278 0.941985 
6.445375 5.506009 237.647430 -5.048418 0.644607 3.664483 
6.826384 5.308600 237.947968 -2.159664 0.702870 5.846474 
6.826384 8.847594 237.797668 -0.341368 2.922563 3.198214 
6.300000 5.566523 237.184586 -6.230874 0.612900 0.223157 
5.775159 5.194106 237.377548 1.622094 6.040775 -0.166580 
5.924037 5.169425 237.355072 -0.076282 6.193172 0.039143 
6.071327 5.202910 237.333557 -2.464079 5.682818 0.384345 
6.220466 5.282804 237.435379 -4.137217 4.354058 1.575668 
5.814672 5.187013 237.552536 1.646090 6.036447 -0.079863 
5.957431 5.163231 237.507309 -0.018189 6.173565 0.440844 
6.379135 5.537687 237.533051 -5.554781 0.680015 2.819006 
6.302946 5.408978 237.419006 -5.435932 2.381158 1.835762 
6.192742 5.091995 237.927689 0.625468 6.051143 1.250367 
6.147094 5.182452 237.596619 -1.855905 5.636457 1.842412 
6.399247 5.212358 237.771606 -2.623398 4.218987 3.742303 
6.343719 5.391896 237.530533 -4.982107 2.307133 2.911444 
6.458220 5.000914 238.144211 1.146816 5.908966 1.555060 
6.532727 5.042151 238.035461 -0.073728 5.313928 3.247494 
6.300848 5.128974 237.838165 -1.067235 5.515420 2.674776 
6.590765 4.947353 238.234299 1.657776 5.947409 1.050906 
6.637694 4.974969 238.136154 0.821199 5.565321 2.758680 
6.688708 5.030107 238.052765 -0.098026 4.647193 4.203892 
6.720177 5.365060 237.897858 -2.730866 0.743398 5.594261 
6.672010 5.235769 237.904465 -2.362887 2.215597 5.312232 
6.657830 4.993919 238.100632 0.341623 5.191515 3.503334 
6.613989 5.420619 237.826797 -3.659356 0.650427 5.053113 
6.474983 5.331167 237.736740 -3.893045 2.210962 4.304748 
6.606940 5.123677 237.952225 -1.306899 4.062109 4.538742 
6.262565 5.267656 237.552780 -3.653252 4.310991 2.595000 
6.013555 5.148274 237.655914 0.198829 6.140135 0.829510 
5.880741 5.169931 237.722290 1.706843 6.021801 0.012240 
6.099500 5.196768 237.466293 -2.235602 5.682796 1.085870 
6.278772 5.417142 237.305298 -5.709387 2.312325 0.818850 
6.187395 5.288558 237.196411 -4.287817 4.518719 0.024095 
6.195599 5.289692 237.316116 -4.341573 4.394942 0.653947 
6.062021 5.201136 237.200119 -2.731906 5.594721 -0.059978 
10.166929 4.133864 239.214828 -1.713729 0.605247 6.007186 
10.166929 7.481309 239.072647 0.048556 2.985513 3.362595 
9.892159 3.774698 239.606308 2.058261 5.919407 0.155223 
6.599639 4.950538 238.213852 1.234133 5.841560 1.917300 
6.719610 5.074675 238.012604 -0.578172 4.046100 4.758717 
6.786919 5.203757 237.954819 -1.843964 1.627450 5.765792 
10.127463 4.029022 239.221664 -1.328630 1.405855 5.963289 
6.777994 5.183675 237.959732 -1.436151 2.514479 5.564923 
10.118539 4.008940 239.226578 -0.854761 2.274564 5.781003 
6.739789 5.108425 237.990692 -1.014791 3.283525 5.241785 
10.060155 3.899939 239.279465 -0.062840 3.843735 4.956566 
9.940185 3.775802 239.480698 1.468603 5.761209 2.000871 
10.302075 4.060979 239.254120 -0.985655 0.568981 6.168779 
9.931310 3.772618 239.501144 1.785814 5.907119 1.084170 
9.978239 3.800234 239.403000 1.119758 5.471184 2.848917 
10.345168 3.774338 239.353943 0.832710 3.721218 4.942181 
10.384637 3.876788 239.292969 0.149916 2.108160 5.858421 
10.427721 3.992297 239.269028 -0.028508 0.740917 6.225893 
10.309335 3.640208 239.560730 2.035611 5.620626 1.671796 
10.342990 3.724958 239.397751 2.194452 3.990765 4.184879 
10.291898 3.646731 239.559891 1.871044 5.701480 1.639523 
10.283348 3.634152 239.684555 2.113269 5.894829 0.211656 
10.080335 3.933689 239.257538 -0.454137 3.121373 5.417838 
10.029253 3.855371 239.319611 0.347758 4.510604 4.341216 
9.998375 3.819184 239.367477 0.737458 5.045472 3.655263 
10.313205 3.695047 239.445953 1.511070 5.044480 3.349674 
10.440545 7.376226 239.125397 0.856466 2.990837 3.521136 
10.440545 3.985240 239.269424 0.190342 0.729987 6.217782 
12.012039 2.999523 239.711670 1.741912 5.987258 0.151671 
10.359452 3.767989 239.355118 1.178923 3.498986 5.032904 
12.081017 3.172377 239.357590 0.793724 3.269538 5.205096 
10.397912 3.870150 239.293900 0.657952 2.081623 5.812460 
10.328930 3.688756 239.447052 1.788508 5.018171 3.250116 
12.030520 3.041287 239.509705 1.362352 5.306715 2.831982 
10.302584 3.627097 239.685013 2.154297 5.877048 0.239365 
12.169662 3.357687 239.296555 -0.357842 0.631197 6.216045 
12.150478 3.357666 239.296082 -0.075623 0.646943 6.231650 
12.249169 3.358196 239.308548 -1.420440 0.412639 6.096270 
12.264379 3.358375 239.312759 -1.781837 0.364668 6.011117 
12.273607 6.712609 239.173187 0.307292 3.333984 3.394574 
12.530422 6.585853 239.435608 -1.830722 3.199899 1.575792 
12.505078 3.366824 239.511703 -5.522088 0.615123 2.793580 
12.159887 2.983807 239.611145 -0.160749 5.900954 1.404450 
12.268658 3.104997 239.425140 -1.823956 4.144819 4.069690 
12.197299 3.267154 239.313339 -0.773610 1.780785 5.878752 
12.303695 3.226504 239.357437 -2.409217 2.322056 5.145464 
12.158982 3.019583 239.511719 -0.164947 5.393017 2.745692 
12.052444 3.097385 239.424408 1.113896 4.442130 4.151308 
12.016739 3.007908 239.607681 1.559751 5.806570 1.370838 
12.307470 3.016798 239.611145 -2.389479 5.391249 1.367939 
12.331860 3.018693 239.710846 -2.852284 5.472428 0.179739 
12.431493 3.103328 239.611145 -4.224205 4.113230 1.408798 
12.530422 3.369394 239.572220 -5.916762 0.581335 1.686688 
12.521758 3.227138 239.701981 -5.750308 2.415715 0.256094 
12.513398 3.230453 239.611145 -5.487435 2.198500 1.424893 
12.473607 3.364663 239.460815 -4.890659 0.567275 3.767245 
12.385114 3.360908 239.372406 -3.672047 0.451844 4.953013 
12.273607 3.358497 239.315643 -2.354984 0.428354 5.774330 
12.348414 3.295914 239.357437 -3.052893 1.271052 5.185800 
12.152970 3.257245 239.313339 -0.079851 1.906850 5.891238 
12.150000 3.357666 239.296082 0.075890 0.693121 6.227126 
12.206235 3.357835 239.300049 -0.863366 0.560561 6.172763 
12.480133 3.243652 239.511719 -4.997300 2.090984 2.745789 
12.437880 3.097176 239.707520 -4.651103 4.156485 0.197045 
12.160108 2.975128 239.712708 -0.264332 6.231314 0.132516 
12.157451 3.080138 239.425140 -0.144556 4.532383 4.073036 
12.114292 3.261154 239.313812 0.419046 1.866503 5.912776 
12.259153 3.331330 239.313339 -1.850336 0.908444 5.877560 
12.234552 3.293146 239.313339 -1.421350 1.400257 5.869592 
12.155398 3.161246 239.357437 -0.118536 3.347456 5.151165 
12.362111 3.170200 239.425140 -3.260476 3.142551 4.069700 
12.235979 3.179258 239.357437 -1.347740 3.062652 5.145468 
12.423829 3.265992 239.425140 -4.188125 1.736328 4.092522 
12.405725 3.128164 239.511719 -3.880194 3.739849 2.741962 
12.293056 3.049554 239.511719 -2.170628 4.932626 2.741958 
12.550000 6.409486 240.717606 -2.084767 2.854938 0.495519 
12.012039 3.048358 240.860382 1.603845 6.042086 -0.241757 
12.119059 2.976198 239.712662 0.754578 6.163292 0.195237 
12.162978 3.024046 240.861404 0.154687 6.226021 -0.193989 
12.228398 2.982752 239.712372 -1.349160 6.045763 0.208192 
12.228398 3.031586 240.861084 -1.303391 6.120697 -0.176486 
12.312021 3.058087 240.859955 -2.735735 5.593098 -0.063671 
12.421683 3.081326 239.708191 -3.930631 4.816280 0.239241 
12.491134 3.214789 240.853302 -5.291563 3.353103 0.029105 
12.535002 3.266232 239.700333 -6.039324 1.400156 0.393661 
12.550000 3.374639 239.695724 -6.194490 0.444918 0.467392 
12.520782 3.273540 240.850800 -5.899301 2.031960 0.153771 
12.491134 3.165955 239.704590 -5.241853 3.313217 0.326537 
12.437394 3.145509 240.856247 -4.287068 4.519310 0.024935 
12.558746 3.423671 240.962494 -6.146346 0.623593 1.031229 
12.562154 6.386633 240.857620 -2.043661 2.788288 0.860323 
12.598246 6.355708 240.993759 -1.955119 2.890458 1.289368 
12.174037 3.026376 241.014908 -0.025162 6.199451 0.101553 
12.550000 3.423474 240.844421 -6.232252 0.599851 0.210875 
12.565080 3.261068 241.117569 -5.572754 2.118146 1.862094 
12.445599 3.146643 240.975952 -4.296725 4.426959 0.774685 
12.321326 3.059862 240.993393 -2.472863 5.677817 0.489865 
12.025159 3.051058 241.037384 1.628455 6.039671 -0.159929 
12.528772 3.274094 240.965134 -5.706470 2.279226 0.953633 
12.598246 3.408534 241.118927 -5.934956 0.674726 1.891265 
12.904877 6.133120 241.846420 -1.937621 3.093502 1.327109 
12.591800 2.946822 242.043900 -1.181925 6.052292 0.572618 
12.363654 3.049730 241.171356 -2.471227 5.602624 1.156248 
12.482974 3.135489 241.135910 -3.970818 4.552727 1.543796 
12.807856 3.079188 241.977646 -4.505029 4.010801 1.609427 
12.774488 3.043655 241.986511 -3.755229 4.761537 1.355106 
12.881151 3.208716 241.962845 -5.519936 2.301003 1.775039 
12.535346 3.203419 241.123108 -4.950731 3.393557 1.803047 
12.904877 3.331747 241.965408 -5.961070 0.538007 1.739706 
12.886529 3.225067 241.962372 -5.798610 1.429768 1.755956 
12.841977 3.126632 241.969589 -5.074789 3.200731 1.600195 
12.285169 3.023609 241.197418 -1.101243 6.113793 0.796446 
12.224159 3.016037 241.218826 0.278483 6.217331 0.362888 
12.894878 3.344412 242.263611 -5.632695 0.402278 -2.487054 
12.923826 3.340273 242.166153 -6.062955 0.498204 -0.996619 
12.927233 3.335958 242.064575 -6.120867 0.544886 0.530054 
12.898580 3.202370 242.173767 -5.547428 2.099826 -1.062836 
12.817814 3.070251 242.173767 -4.339668 4.016407 -1.058747 
12.821327 3.066999 242.065399 -4.460315 4.091696 0.328769 
12.489990 2.940063 242.080170 0.585681 6.172971 0.035127 
12.559933 2.939264 242.081848 -0.662586 6.084113 0.159521 
12.678333 3.010200 242.276855 -2.437250 5.037302 -2.469095 
12.752946 3.123178 242.354858 -3.697088 3.350694 -3.617092 
12.810812 3.230631 242.365051 -4.567573 1.763022 -3.731441 
12.903075 3.200725 242.065399 -5.657084 2.106901 0.440978 
12.866910 3.213954 242.276855 -5.115881 1.923512 -2.598833 
12.793065 3.093156 242.276855 -4.061242 3.703007 -2.535982 
12.581628 2.976748 242.266556 -1.039953 5.656888 -2.233137 
12.541554 2.944225 242.173767 -0.476277 6.016098 -1.053341 
12.689008 2.982218 242.011902 -2.616104 5.492222 1.201155 
12.694316 2.975164 242.065399 -2.613453 5.496382 0.252641 
12.692329 2.979520 242.173767 -2.508760 5.381026 -1.011901 
12.484236 2.951497 242.196732 0.612397 6.027656 -1.263586 
12.674088 3.035820 242.320969 -2.467324 4.660499 -3.231777 
11.138729 3.933930 244.442947 -4.183028 1.578840 -4.265538 
11.170177 4.051406 244.428497 -4.607218 0.197514 -4.207008 
12.842260 3.348106 242.350601 -5.060977 0.367116 -3.605761 
10.812152 3.654796 244.274628 0.893095 5.919821 -1.579152 
10.989849 4.056860 244.556915 -2.369413 -0.118258 -5.779516 
10.989849 6.475341 244.454193 0.159619 3.067546 -2.603405 
10.904193 3.919003 244.558029 -0.802629 2.043723 -5.774265 
11.069112 3.934970 244.502106 -3.202529 1.641242 -4.976596 
11.016652 3.865574 244.502106 -2.420197 2.683907 -4.956726 
11.046502 3.782926 244.419846 -2.651567 3.903812 -4.062852 
11.002005 3.739120 244.398865 -2.083103 4.741586 -3.459171 
10.857199 3.803707 244.502106 -0.076759 3.719990 -4.866531 
10.973865 3.982497 244.558029 -1.902717 0.948026 -5.787038 
10.955625 4.057300 244.567261 -1.313379 0.140998 -6.096679 
10.874015 4.040920 244.579620 -1.057678 0.296666 -6.185481 
11.089086 4.054673 244.505417 -3.570909 -0.071111 -5.077142 
10.987039 4.028596 244.558029 -2.139270 0.389113 -5.802310 
10.869223 4.027957 244.579590 -1.004315 0.600062 -6.171637 
10.944952 3.944250 244.558029 -1.458034 1.579350 -5.782898 
10.858144 3.998199 244.577698 -0.808010 1.033935 -6.136192 
10.836033 3.939680 244.566422 -0.266330 1.902303 -5.952103 
10.758166 3.744754 244.430130 0.935342 4.823920 -3.785969 
10.837575 3.671192 244.331573 0.320417 5.663804 -2.361642 
10.909545 3.680047 244.344452 -0.722452 5.501009 -2.749297 
11.080863 3.826477 244.432755 -3.366760 3.061327 -4.223265 
10.973450 3.740504 244.417068 -1.543501 4.584105 -3.802083 
10.857300 3.718689 244.417068 -0.004694 4.863208 -3.711933 
11.093017 4.018615 244.502106 -3.637322 0.498077 -4.952901 
10.942698 3.819764 244.502106 -1.296999 3.432918 -4.892741 
10.857072 3.910154 244.558029 0.059973 2.236092 -5.760343 
10.462502 6.643003 244.616470 -0.838884 2.559883 -2.072213 
10.463322 4.293605 244.715668 -3.287299 0.196646 -5.339376 
10.660974 6.585138 244.515762 -0.122548 2.552940 -2.483950 
10.880224 6.511940 244.474716 0.432655 2.803961 -2.689428 
10.447893 3.873946 244.510651 0.429500 4.893691 -3.828944 
10.793939 3.831721 244.515091 0.389963 3.503367 -5.132050 
10.871169 4.033215 244.579666 -1.063281 0.413320 -6.178209 
10.573694 4.075827 244.632278 -1.489791 1.666548 -5.804423 
10.622177 4.202401 244.631775 -2.250819 0.109733 -5.842168 
10.661304 4.180220 244.617783 -2.459725 -2.348797 -4.211174 
10.880224 4.057796 244.578949 -1.039583 -0.088729 -6.194726 
10.877255 4.049715 244.579376 -0.996410 0.132355 -6.201970 
10.095080 3.939034 244.585159 0.810290 5.856170 -1.899955 
10.357569 4.193624 244.772858 -3.354410 1.829577 -4.907531 
10.132143 4.077651 244.836655 -2.135366 4.692609 -3.562543 
10.077765 4.038392 244.806183 -1.360456 5.244894 -3.157798 
10.284580 4.073978 244.743866 -2.171509 3.776352 -4.445511 
10.181602 4.127144 244.859711 -2.842684 3.948179 -3.958793 
10.402805 4.328951 244.761765 -4.038069 0.322428 -4.783264 
10.259268 4.249826 244.880676 -4.127038 1.794189 -4.315794 
10.193184 3.985332 244.678513 -0.741547 5.166974 -3.387183 
10.002828 3.941010 244.475754 1.861565 5.941328 -0.664271 
10.513288 3.961985 244.590302 -0.578513 3.511907 -5.109358 
10.732306 3.687510 244.320068 1.511614 5.611483 -2.131382 
10.385019 3.821819 244.402481 1.380735 5.686620 -2.105092 
10.718956 3.665735 244.195938 1.878236 5.916443 -0.753515 
9.849094 4.004266 244.633728 1.770057 5.973577 -0.606677 
9.938352 4.061200 244.908173 -0.579580 5.506410 -2.776868 
10.211002 4.165008 244.870544 -3.452214 3.149279 -4.176850 
10.030810 4.120273 244.962585 -1.896577 4.622665 -3.689279 
10.109670 4.207630 244.996475 -3.315370 3.134643 -4.207204 
10.167536 4.315083 245.006668 -4.212213 1.574470 -4.249356 
10.300317 4.389937 244.866287 -4.607652 0.316931 -4.240935 
10.039684 4.018578 244.782242 -0.572551 5.683290 -2.570896 
9.961726 3.995510 244.727325 0.589865 5.968982 -1.647569 
8.980092 6.967379 246.184952 1.078496 4.272381 -2.444482 
9.918486 4.284618 245.117935 -0.860079 2.478839 -5.677179 
9.246067 6.888338 246.061310 -0.590002 3.592369 -2.195647 
9.349784 6.864610 245.959381 -1.203009 3.121327 -1.787215 
10.025894 4.326849 245.106049 -2.565847 1.599985 -5.462718 
0.796204 6.613663 243.804565 1.952268 5.294279 -2.749696 
1.032391 7.384187 244.667130 0.767358 1.242686 -6.078906 
-3.739355 7.281086 243.862778 0.183777 4.019623 -4.802471 
-3.794535 7.106149 243.696472 0.045897 4.570576 -4.280629 
-0.131636 6.503972 242.567841 1.833755 5.816225 -1.503069 
-1.404544 7.108291 243.677933 0.564178 5.490420 -2.973969 
-2.572161 7.195460 243.779724 0.007207 4.964617 -3.837709 
-2.658551 6.875332 243.198685 -0.379415 5.865867 -2.137313 
-3.876991 6.825662 243.315689 -0.313507 5.427692 -3.110528 
-1.692244 6.745867 242.474030 0.144427 6.144881 -1.293091 
-1.019581 6.695211 242.516357 0.997017 6.034237 -1.414829 
-0.316000 6.772040 243.348969 1.426209 5.777843 -1.982721 
-3.337637 6.604916 242.361252 -0.612453 6.159553 -1.051232 
-6.167904 7.124465 243.541580 0.642891 3.871596 -4.876656 
-5.054169 6.888589 243.430740 0.214590 4.746742 -4.067138 
-6.278499 6.766309 243.155991 0.557356 5.040593 -3.657502 
-6.230016 6.927645 243.355026 0.598863 4.494806 -4.310721 
-3.930577 6.590940 242.704620 -0.560917 6.071914 -1.375363 
-6.334810 6.552886 242.744308 0.429967 5.863963 -2.108845 
-5.159190 6.484380 242.620117 -0.119799 6.060588 -1.424339 
-0.130680 7.437400 244.447235 1.283833 3.568092 -4.999093 
0.904479 6.996781 244.407242 1.638569 4.146033 -4.386830 
-0.025224 7.749459 244.610626 0.714341 1.159017 -6.106640 
-3.273324 8.637641 244.428940 0.520371 0.765254 -6.201993 
-1.137780 7.959130 244.517380 0.772784 1.803232 -5.957667 
-0.059737 7.650221 244.577194 0.980607 2.116009 -5.817687 
-3.441055 8.163912 244.325806 0.577601 1.689756 -5.995613 
-0.165271 7.328566 244.348724 1.370607 4.240645 -4.407573 
0.845538 6.797895 244.146210 1.838246 4.867802 -3.495581 
-1.182304 7.829343 244.462021 0.858189 2.562070 -5.662318 
-1.226572 7.697062 244.384506 0.903976 3.230123 -5.303242 
-0.227911 7.119485 244.087173 1.410940 4.929997 -3.602312 
-1.345187 7.320145 244.020981 0.717779 4.967284 -3.761741 
-1.309128 7.439303 244.163223 0.765487 4.402864 -4.408389 
-2.481067 7.489156 244.088242 0.388614 3.926000 -4.875996 
-5.903321 7.913428 243.993347 0.647570 2.039145 -5.889163 
5.225450 5.819912 244.887085 0.738066 1.090237 -6.120211 
5.149578 5.599637 244.798935 1.396058 2.755383 -5.441672 
5.188393 5.713664 244.853302 1.060363 1.964403 -5.858128 
1.001238 7.294222 244.634262 1.102343 2.248656 -5.743841 
3.069369 6.426807 244.691620 1.531055 3.318068 -5.102463 
3.002067 6.217593 244.517578 1.790762 3.980631 -4.479654 
5.070022 5.356607 244.622864 1.813785 3.633502 -4.755041 
4.113252 4.723831 242.783569 2.714834 5.312908 -1.966549 
-7.347435 6.728854 242.843643 1.223078 5.554990 -2.563375 
-6.313281 6.641507 242.950394 0.472484 5.524403 -2.877103 
-7.335260 7.062189 243.287201 1.247624 4.182264 -4.485674 
-7.291483 7.564075 243.653702 1.094555 2.865671 -5.469873 
-7.226911 9.533366 244.187195 0.980579 0.700364 -6.123162 
7.308452 5.000446 244.994827 0.765874 1.073295 -6.111984 
7.212961 4.726023 244.903351 1.271026 2.218065 -5.699542 
7.968153 4.198763 244.861389 1.219011 2.661730 -5.526619 
4.994650 5.112363 244.359009 2.158338 4.345123 -3.964691 
4.928298 4.881104 244.014084 2.441028 4.789623 -3.235986 
5.602348 3.963687 242.854492 2.838443 5.225394 -2.026657 
4.873765 4.674206 243.613907 2.656410 5.087254 -2.533521 
7.022223 4.139976 244.457825 2.174545 3.935974 -4.365635 
7.987105 3.644282 244.505157 1.949777 3.889600 -4.472262 
7.961471 4.016822 244.762970 1.364871 3.178113 -5.178316 
8.030697 4.608919 245.013916 0.578116 1.402472 -6.057101 
7.987676 4.380069 244.941345 0.917785 2.052774 -5.823435 
5.294096 6.011222 244.911484 0.906691 1.622029 -5.893144 
-5.677365 8.560388 244.193161 0.570659 1.176214 -6.122681 
-6.003877 7.619402 243.862030 0.679297 2.611341 -5.657362 
-7.261593 8.407471 243.980469 1.161021 1.583957 -5.905554 
-6.344383 6.497623 242.542694 0.466558 6.124623 -0.997701 
1.455561 5.943099 242.652130 2.324852 5.608685 -1.611628 
0.758248 6.452591 243.407684 2.047386 5.560063 -2.075176 
2.938723 6.006539 244.255707 2.109725 4.727199 -3.512296 
2.838517 5.625457 243.514099 2.412369 5.258419 -2.411100 
0.969030 7.198419 244.580917 1.365728 3.170952 -5.216214 
7.114178 4.429931 244.724091 1.763522 3.220205 -5.060336 
1.090942 7.547647 244.689911 0.913694 1.655737 -5.889127 
-6.092437 7.355381 243.711212 0.668193 3.254525 -5.311890 
-3.675158 7.477885 244.009628 0.374583 3.348584 -5.280911 
-3.602725 7.694321 244.136398 0.525044 2.605917 -5.662220 
-2.426411 7.656543 244.212112 0.575864 3.250187 -5.327884 
-1.269271 7.565856 244.284683 0.844141 3.887954 -4.852582 
-2.367228 7.833229 244.314606 0.680570 2.685653 -5.625748 
-2.305328 8.014153 244.394958 0.668068 1.894191 -5.933567 
-0.095162 7.545539 244.523315 1.163266 2.888304 -5.443604 
-1.094080 8.083714 244.552307 0.621786 0.981995 -6.156705 
-5.097704 6.740914 243.232590 0.101831 5.230496 -3.425405 
-3.903905 6.722586 243.111511 -0.406419 5.784057 -2.349458 
-4.998859 7.066633 243.616135 0.329277 4.181359 -4.643043 
-3.840494 6.953907 243.512650 -0.165238 5.072187 -3.664181 
-5.129363 6.624739 243.027573 -0.011791 5.683555 -2.556592 
-1.969297 6.742624 242.455765 -0.248567 6.151219 -1.241841 
-2.607852 7.071558 243.597610 -0.126153 5.423789 -3.144695 
-1.445685 6.938469 243.280807 0.429817 5.924861 -1.991818 
-0.278696 6.931279 243.745514 1.412393 5.444425 -2.781409 
-2.529843 7.334903 243.943893 0.178589 4.526546 -4.334942 
-4.932043 7.273680 243.784348 0.438423 3.431056 -5.202921 
9.858947 4.181868 245.062485 0.327907 3.726411 -4.867495 
9.941871 4.186994 245.062485 -0.874504 3.669531 -4.821371 
9.961061 4.106670 244.977982 -1.095835 4.754506 -3.711889 
10.062402 4.150098 244.977905 -2.463361 4.052202 -4.027632 
10.018806 4.323652 245.107864 -2.025665 1.964993 -5.581530 
10.078783 4.276710 245.062485 -3.021127 2.281200 -4.871668 
10.122674 4.377794 245.062927 -3.798749 0.743096 -4.850035 
10.018155 4.219905 245.062485 -1.994577 3.189431 -4.856018 
9.778920 4.172159 245.037247 1.382977 3.991992 -4.538543 
9.917005 4.284123 245.117889 -0.241443 2.612420 -5.653579 
9.805413 4.253310 245.097382 0.879001 2.909921 -5.429617 
9.849795 4.099793 244.977982 0.489231 4.925271 -3.606945 
9.840959 4.035949 244.838348 0.865886 5.957941 -1.498529 
9.747763 4.046888 244.759659 1.909607 5.910159 -0.730936 
9.843778 4.045828 244.873062 0.577196 5.729289 -2.189152 
10.198984 4.432559 244.992218 -4.672262 0.284481 -4.144905 
10.116586 4.350694 245.062485 -3.479165 1.208053 -4.975515 
9.967215 4.302191 245.116531 -1.399358 2.247370 -5.643904 
9.749078 4.065307 244.862427 1.810246 5.623079 -1.865884 
8.855929 4.372890 244.712631 -0.740697 3.673410 -2.992124 
8.737215 4.436055 244.811676 -0.652752 3.526648 -3.784844 
8.471147 4.672349 244.985870 -0.102730 2.289183 -5.576335 
8.649005 4.500657 244.877426 -0.333246 3.288984 -4.382470 
9.759705 4.108035 244.957108 1.628851 4.989035 -3.289122 
0.063980 5.745515 239.550568 2.253619 5.734503 -1.201888 
2.597592 4.744059 240.451782 2.871281 5.345627 -1.628551 
2.334306 4.794634 237.270279 2.262984 5.441497 2.144934 
2.317050 4.995048 236.850784 1.984571 5.248152 2.801914 
0.039765 5.709587 237.263412 2.005276 5.745137 1.543019 
1.247473 5.198074 239.555740 2.716416 5.535472 -1.182138 
1.169574 5.164441 237.721619 2.440377 5.714774 0.847499 
2.457455 4.482170 239.085175 2.901839 5.534808 -0.586041 
-3.787389 6.709240 236.701019 0.795540 5.421478 3.028044 
-4.736859 6.440105 237.512314 0.680082 5.797797 2.208387 
-6.634995 6.375275 239.283051 1.050583 6.157423 0.016002 
-4.736204 6.209699 238.414352 0.389713 6.170461 0.821872 
-3.784917 6.176307 238.463837 0.167191 6.237096 0.414898 
0.043134 5.615392 237.718170 2.100049 5.869625 0.668380 
-3.782995 6.214732 239.388321 -0.064133 6.258915 -0.516442 
-1.937087 6.135071 237.652039 0.936658 6.104196 1.019025 
0.052121 5.586381 238.639404 2.223640 5.843293 -0.396079 
-3.778380 6.426053 241.234528 -0.365035 6.226906 -0.743609 
-1.934191 6.389927 236.756775 1.053213 5.728745 2.306021 
-1.934652 6.667790 236.211441 0.805621 3.723326 -1.527310 
-2.793004 6.851920 236.196716 0.844695 3.768326 -1.371770 
-4.737321 6.872169 236.688843 0.980905 5.097832 3.471669 
-7.413943 7.746543 236.414490 1.578172 4.317394 4.246644 
-7.413463 7.762311 236.399033 1.590338 4.220383 4.352181 
-6.292005 7.703067 236.161728 0.993777 3.902711 -0.539105 
-5.688402 7.063324 236.684769 1.019929 4.851293 3.779212 
-6.634449 6.470200 238.355789 1.193703 5.956506 1.380109 
-7.484130 6.647657 238.432846 1.797335 5.765191 1.515632 
-7.308856 6.566081 242.099777 1.042650 6.164993 -0.293120 
-5.690461 6.360383 241.170074 0.392606 6.245441 -0.403891 
-4.732338 6.458117 242.264725 -0.361754 6.219903 -0.737904 
-0.999298 6.095311 239.527328 1.414082 5.995203 -1.138777 
-1.947169 6.238565 239.487930 0.502881 6.173275 -0.923817 
-1.960820 6.548494 241.312546 0.091685 6.164013 -1.093509 
-0.350730 6.562618 242.555603 1.451108 5.916080 -1.532399 
0.078005 5.949627 240.456070 2.110165 5.761204 -1.309986 
0.092162 6.155508 241.361374 2.009141 5.787640 -1.361886 
2.784284 5.362443 242.719101 2.603127 5.424294 -1.806865 
5.322802 3.546923 241.310211 2.847429 5.258846 -1.927184 
9.368605 1.371893 241.235550 2.676978 5.550319 -1.125341 
9.270921 1.409135 241.183578 2.721628 5.539409 -1.081015 
9.480390 1.377997 241.465103 2.862297 5.366008 -1.578191 
9.590692 1.376910 241.657181 2.480770 5.504077 -1.659577 
9.473201 1.344520 241.336365 2.575004 5.573633 -1.234290 
9.381612 1.367636 241.245056 2.625955 5.564151 -1.170384 
9.567106 1.348657 241.523392 2.461953 5.548358 -1.540962 
7.481519 2.363638 241.240128 2.836161 5.318305 -1.773244 
9.592012 1.387683 241.693695 2.448177 5.507643 -1.718739 
6.798370 2.697889 241.170395 2.859481 5.325497 -1.636186 
3.934517 3.993141 240.409378 2.683852 5.462821 -1.515412 
2.696982 4.979949 241.356567 2.763779 5.374741 -1.714438 
4.997735 3.655099 241.117783 2.820423 5.390227 -1.535434 
3.647969 4.038828 240.080658 2.625796 5.473085 -1.567705 
3.722764 4.029974 240.175461 2.646535 5.467293 -1.555249 
3.634978 4.040097 240.063416 2.641471 5.460730 -1.583868 
2.357179 4.639780 237.710205 2.482234 5.562990 1.501804 
2.305331 5.239302 236.455170 1.722219 4.988453 3.390287 
3.294666 4.391374 237.263245 1.872484 5.365571 2.624981 
3.281801 4.356440 237.351730 1.991584 5.493187 2.247663 
2.385339 4.535044 238.161407 2.681244 5.616847 0.784662 
2.500396 4.530887 239.544815 2.911521 5.426514 -1.195813 
5.972336 3.172044 241.257568 2.770878 5.160998 -2.087511 
5.583283 3.381534 241.250229 2.870783 5.324535 -1.655218 
8.132121 1.954476 241.024750 2.819444 5.429568 -1.366444 
4.806351 4.374813 242.816681 2.769436 5.245142 -2.070112 
-1.476824 6.738936 242.487900 0.498714 6.107569 -1.379460 
-4.735350 6.190528 239.341751 0.091370 6.258397 -0.264278 
-5.615405 6.427843 242.205704 0.136726 6.234293 -0.604077 
-7.440538 6.555040 239.872314 1.566474 6.054627 -0.158179 
-5.688982 6.302453 238.377670 0.814923 6.068487 1.133811 
-5.688650 6.584083 237.484772 1.005017 5.615287 2.511559 
-7.458347 7.136692 237.194763 1.677635 5.064279 3.226574 
-2.852854 6.556386 236.723724 0.906553 5.596907 2.652775 
0.034269 6.156811 236.216141 1.064924 3.642183 -1.434063 
-0.994079 5.926085 238.617203 1.511055 6.062133 -0.478193 
-2.853153 6.155246 238.519516 0.239192 6.258515 0.001257 
-1.941433 6.094060 238.573944 0.800799 6.202720 -0.370785 
-0.990125 5.940763 237.694427 1.540322 6.013837 0.806525 
0.037175 5.856050 236.820480 1.828600 5.577416 2.224270 
-0.987500 6.169943 236.792114 1.487771 5.700574 2.132388 
-2.852975 6.250439 237.601425 0.588020 6.076090 1.368580 
-3.786385 6.339595 237.552795 0.516987 5.963186 1.799418 
-5.689411 6.237291 239.305878 0.659308 6.216468 -0.035622 
2.418764 4.481913 238.620728 2.813805 5.607303 0.134686 
1.203130 5.082813 238.638916 2.677837 5.656829 -0.183156 
0.035356 6.051596 236.399673 1.678922 5.365473 2.796951 
1.353356 5.637717 241.365143 2.493344 5.560093 -1.523664 
1.300037 5.413691 240.460846 2.621420 5.509559 -1.493936 
8.699788 4.415230 244.829895 -2.960016 1.487845 -5.307175 
8.977941 4.082820 244.549286 -3.955067 1.124454 -4.682935 
8.765758 3.415528 244.383148 -1.484644 3.178364 -5.112633 
8.612868 3.838021 244.664734 -1.613554 2.555529 -5.403317 
8.541724 3.308522 244.344955 -0.092288 3.819404 -4.868647 
8.103709 3.216299 244.125732 2.284180 4.492755 -3.697450 
8.720544 2.939725 244.019272 -0.008336 4.334912 -4.409882 
8.487329 2.874538 243.907089 1.369527 4.761093 -3.703490 
8.953675 3.054421 244.080261 -1.447352 3.637086 -4.799823 
8.920266 2.280117 243.182190 1.613929 5.212773 -2.942693 
8.270641 2.863504 243.751678 2.455909 4.965562 -2.855145 
8.081647 4.848991 245.051758 0.322097 0.595065 -6.228550 
8.388695 4.768266 245.021301 0.115857 1.843384 -5.831244 
8.385286 4.772425 245.022522 0.230494 1.820219 -5.853852 
8.200700 4.625884 245.025940 -0.268332 1.339247 -6.055243 
8.242027 4.850581 245.051483 -0.449703 0.561768 -6.215811 
8.535151 4.604537 244.951248 -0.097593 2.729230 -5.238405 
8.528279 4.343383 244.890472 -1.971961 1.851819 -5.596895 
8.604377 4.538693 244.908005 -0.257279 3.041523 -4.783965 
8.807617 3.952448 244.628723 -2.834822 1.905944 -5.190120 
8.369664 4.648327 245.009186 -1.112820 1.206574 -6.012753 
8.132374 4.972099 245.060333 0.732772 1.565533 -5.907653 
9.626096 2.637239 243.460739 -2.793072 3.049079 -4.631623 
9.810717 2.856345 243.437408 -3.964075 1.709278 -4.468678 
8.316299 3.240685 244.257294 1.211234 4.244472 -4.349461 
9.170118 3.210458 244.085693 -2.788992 2.677262 -4.853577 
9.154088 3.717995 244.304825 -3.923904 1.336930 -4.642043 
9.293880 3.894370 244.193237 -4.653995 0.513462 -4.169435 
9.354457 3.396722 244.035202 -3.941039 1.521365 -4.560065 
8.191592 3.679799 244.601288 0.828972 3.541231 -5.005397 
8.974265 3.554951 244.369492 -2.789461 2.333640 -5.036421 
9.114926 4.222317 244.430573 -4.661294 0.463154 -4.170660 
8.155330 4.233039 244.906525 0.150865 2.453196 -5.680721 
8.344449 4.281868 244.916336 -0.787994 2.128686 -5.744838 
8.403882 3.745524 244.655426 -0.310735 3.088523 -5.332756 
9.796840 2.080627 242.922058 -1.473018 4.192022 -4.353325 
9.315370 1.899951 242.680527 1.517334 5.320639 -2.839210 
10.200655 2.479916 242.939133 -3.995209 1.713427 -4.448904 
10.409481 1.887966 242.460754 -3.036915 3.384296 -4.273756 
10.287216 1.779258 242.445541 -2.358178 3.942628 -4.218089 
10.017759 2.259750 242.960846 -2.850867 3.078967 -4.592144 
10.087667 1.647768 242.386688 -0.980988 4.794075 -3.878743 
9.879557 1.561066 242.287964 0.471426 5.311805 -3.264863 
9.094490 1.913283 242.497696 2.551912 5.353985 -2.030034 
8.699322 2.294026 242.998810 2.620675 5.261284 -2.160142 
9.161682 2.336707 243.327637 0.115724 4.871393 -3.835731 
9.403623 2.459120 243.423111 -1.394411 4.130651 -4.414745 
9.556098 1.957307 242.825989 0.024410 4.960321 -3.752443 
9.942228 3.098332 243.355057 -4.670209 0.605703 -4.133627 
10.330456 2.722986 242.858749 -4.681490 0.596926 -4.123853 
8.986193 1.614709 240.373779 1.826842 5.290370 2.698736 
9.257405 2.736232 239.691147 -1.934436 0.515330 5.943838 
6.202848 2.986092 240.457230 2.843442 5.450683 1.078966 
6.062005 3.038049 240.881393 2.950918 5.477969 -0.487620 
7.124288 2.448421 240.829590 2.955316 5.469103 -0.388314 
5.567039 3.295291 240.838684 2.804944 5.552564 -0.572236 
5.246381 3.454429 240.249191 2.202868 5.847651 0.573779 
7.951151 3.142612 239.366837 -0.006027 2.422266 5.736001 
6.419224 3.799413 239.143082 0.416029 3.794357 4.947798 
6.664490 4.184234 238.911331 -0.513166 2.639004 5.642467 
6.161464 3.492321 239.490677 1.283711 4.746430 3.855961 
8.742158 2.175978 239.823669 0.719623 3.552418 5.038904 
9.244339 1.884601 239.984528 0.322005 3.711556 4.970056 
9.369768 2.085067 239.869202 -0.540010 2.602623 5.624755 
9.830927 1.751653 240.095413 -0.820609 3.381454 5.167435 
8.880521 2.400548 239.692505 -0.225958 2.491036 5.690941 
9.628099 1.484367 240.331390 0.434400 4.931347 3.779714 
9.112098 1.721634 240.157623 1.131727 4.635213 3.972515 
8.796355 1.587274 240.842133 2.652877 5.641133 -0.173951 
9.341767 1.344221 240.926392 2.385954 5.755782 -0.008445 
9.441439 1.348940 240.670624 1.673099 5.753090 1.778186 
8.456462 1.876711 240.264175 2.214016 5.110619 2.747013 
8.878542 1.571490 240.609924 2.348466 5.620635 1.276926 
8.875581 1.585303 241.073990 2.762096 5.505726 -1.180630 
8.228695 3.767900 239.276047 -1.884768 0.491068 5.960822 
6.971561 4.814031 238.787476 0.237897 3.518519 2.845746 
6.875485 4.598577 238.801010 -1.364431 1.512964 5.920468 
8.075601 3.944103 239.213425 -1.889710 0.482126 5.960614 
8.246885 1.853340 240.789719 2.823288 5.550699 -0.211515 
8.337439 1.831668 240.529861 2.642962 5.479686 1.289195 
7.394473 2.461626 240.133667 2.518409 5.008174 2.704738 
9.506586 1.381744 240.536255 1.250562 5.581781 2.486515 
8.595859 1.994307 240.019928 1.552598 4.446904 4.040168 
7.769280 2.847504 239.543274 1.013092 3.463431 5.070166 
7.576968 2.610913 239.806824 1.877067 4.346090 4.038854 
9.478037 2.299970 239.814240 -1.396836 1.397460 5.908770 
8.999372 2.641570 239.629471 -1.190389 1.351033 5.962853 
6.620787 3.225224 239.612106 1.791595 4.448567 3.996010 
8.106853 3.460009 239.281830 -1.080579 1.317595 5.995031 
7.287364 4.269338 238.961075 -1.166679 1.324564 5.987760 
7.090801 3.878342 239.065674 -0.112642 2.463736 5.734711 
6.861865 3.515165 239.284454 0.908063 3.541324 5.059919 
5.295156 3.458420 240.125671 1.858603 5.843880 1.332070 
5.516306 3.556415 239.652023 1.121136 5.506470 2.787854 
5.453849 3.517631 239.773773 1.562374 5.693913 2.125674 
5.918946 3.301109 239.922180 2.001086 5.383000 2.463700 
5.716220 3.239704 240.388092 2.523664 5.642412 0.916246 
7.240036 2.410492 240.486984 2.880521 5.390000 1.190907 
6.393445 3.044478 240.018539 2.455215 5.103602 2.625030 
9.958210 1.981594 240.016022 -1.755429 1.807471 5.662659 
6.497910 4.981095 238.619614 0.203901 3.564935 2.826291 
6.162100 5.095694 238.410141 -0.890418 3.997445 2.078447 
6.551615 4.949433 238.339462 2.012985 5.934329 0.151246 
6.392305 5.004882 238.265533 1.947119 5.950736 0.180225 
5.993565 5.147727 238.176056 -1.460927 4.041524 1.351144 
5.697492 5.224936 237.430832 -1.441141 4.532187 0.864580 
6.411095 5.011470 238.583069 -0.197558 3.486718 2.689875 
6.462163 4.993649 238.605652 0.084103 3.579768 2.784492 
5.762039 5.191406 237.200531 1.605085 6.041805 -0.243470 
10.997661 3.469686 241.995514 -1.716451 3.349570 -1.451308 
5.762039 5.152145 236.277039 0.943780 3.266982 -3.394632 
11.105542 3.413417 241.605240 -1.973879 3.378819 -0.596078 
12.391039 2.962435 242.118042 1.626815 6.021104 -0.382278 
12.084408 3.039222 241.271561 1.645732 6.036400 -0.069917 
11.106436 3.395819 241.199020 -1.982958 3.383768 0.275256 
9.090337 4.276093 244.463654 -1.164692 3.296578 -2.290053 
5.764159 5.208925 237.630966 -1.457878 4.505323 0.864626 
5.786474 5.203495 237.696259 -1.488490 4.347378 1.007022 
6.089164 5.106288 238.028351 1.817033 5.991144 0.110420 
5.804005 5.199171 237.746231 -1.619951 4.069891 1.010146 
10.331885 3.811590 244.278198 1.996707 5.896645 -0.696897 
5.593530 5.250567 237.134369 -1.181758 4.778761 1.044024 
11.000274 3.418183 240.806671 -1.738541 3.379676 1.142530 
11.046975 2.182730 241.490463 -6.192749 0.707384 -0.364719 
11.046368 2.166452 241.345932 -6.188910 0.803703 0.236892 
10.720544 2.352276 242.360413 -4.974989 0.663742 -3.684000 
11.035078 2.200597 241.624756 -6.078679 0.760972 -1.087214 
10.794853 3.478868 240.457001 -1.266011 3.374657 1.888933 
10.410598 2.178909 240.188187 -3.797109 0.755298 4.878078 
10.505256 3.573418 240.175690 -0.618191 3.345561 2.465036 
10.790710 3.560493 242.341171 -1.433994 3.193894 -1.981053 
9.493562 3.599946 243.932373 -4.661477 0.566459 -4.151219 
10.613539 2.142514 242.431992 -4.525171 1.505057 -4.008998 
10.591561 2.108660 242.439850 -4.126425 2.139032 -4.159447 
10.715338 1.810806 242.117142 -4.187355 2.944607 -3.454622 
10.521691 1.631297 242.137878 -3.014585 4.061816 -3.555039 
10.292753 1.499203 242.120834 -1.629668 4.905358 -3.411083 
10.189288 1.708354 242.421371 -1.731089 4.394565 -4.087350 
9.949101 1.584606 242.324982 -0.297438 5.097168 -3.611187 
10.044582 1.423792 242.067200 -0.124057 5.413473 -3.030557 
9.675492 1.524405 242.155350 1.893820 5.452091 -2.427930 
9.708690 1.526907 242.179474 1.165229 5.438278 -2.877319 
10.747644 1.788744 242.048676 -4.549726 3.230867 -2.640904 
10.552634 1.607175 242.075607 -3.354213 4.344971 -2.839185 
9.568729 1.447556 241.843124 2.465140 5.459734 -1.848302 
9.560313 1.459829 241.867523 2.494645 5.427451 -1.905495 
9.794590 1.410353 241.980743 1.393015 5.546855 -2.439583 
10.972327 2.245172 241.897217 -5.901171 0.751773 -1.848455 
9.591746 1.392358 241.708023 2.437524 5.492891 -1.781374 
10.854599 1.684758 241.650452 -4.935236 3.341242 -1.525582 
10.863477 1.654881 241.500107 -4.991299 3.563041 -0.405402 
9.857436 1.307115 241.744843 1.158854 5.774034 -1.955944 
11.034380 2.154800 241.218903 -6.103271 0.882113 0.880709 
10.809251 1.601806 241.097473 -4.876135 3.637333 0.812396 
10.933224 1.856060 241.025375 -5.622736 2.128638 1.280705 
10.759110 1.592881 240.948837 -4.492257 3.699720 1.931614 
10.571383 1.388089 241.041992 -3.366481 4.952346 1.351460 
10.106192 1.208204 241.370895 -0.577240 6.100819 -0.765494 
9.802197 1.229089 241.376953 1.266719 6.004313 -0.853494 
10.882478 1.849389 240.879242 -5.244663 2.141787 2.352537 
10.071465 1.198034 241.265656 -0.367115 6.162261 -0.098609 
9.933284 1.202058 241.015472 -0.059981 6.159873 0.487602 
9.701291 1.230786 241.190964 1.427786 6.008495 -0.525817 
10.684156 1.855832 240.530930 -4.708711 2.129097 3.325201 
10.558733 1.599808 240.595459 -3.946918 3.683487 2.930055 
10.325542 1.402889 240.636505 -2.232529 4.840806 3.059449 
10.381137 1.394804 240.704422 -2.859190 4.939780 2.287667 
10.117278 1.266239 240.787842 -1.002066 5.702076 2.106293 
9.893151 1.208906 240.965118 0.321064 6.093984 0.970780 
9.672203 1.235760 241.153290 1.627516 5.975898 -0.257305 
10.693763 2.145374 240.449478 -4.501260 0.760770 4.232909 
10.626572 1.861954 240.459824 -4.050685 2.069590 4.131746 
10.500255 1.607247 240.523987 -3.272318 3.585503 3.757351 
9.519131 1.277126 241.012573 1.849774 5.920880 -0.064921 
10.147463 1.673832 240.231140 -1.798027 3.370300 4.852304 
9.682444 1.263557 240.779556 0.752371 5.997919 1.316168 
10.277144 1.916641 240.162262 -2.566538 1.891815 5.286742 
10.067853 2.233125 240.006668 -2.339292 0.674999 5.739760 
9.877912 1.830302 240.059235 -1.264494 2.713129 5.459827 
9.991714 1.475780 240.361664 -0.872308 4.600593 4.037968 
9.653263 1.272851 240.761475 1.107503 5.914425 1.522999 
9.562422 1.422937 240.435532 0.899705 5.302441 3.159184 
9.497814 1.284311 240.998596 2.056508 5.864250 0.004434 
9.402898 1.339160 240.760742 1.951686 5.847012 1.023675 
9.756076 1.639704 240.167801 -0.428448 3.945454 4.795240 
9.695597 1.560634 240.238861 0.045638 4.488665 4.320292 
9.858299 1.328031 240.564911 -0.395595 5.591190 2.579948 
9.822437 1.338434 240.543320 0.122913 5.471638 2.900459 
10.032425 1.465315 240.386078 -1.504884 4.742230 3.628140 
10.370317 2.184658 240.160583 -3.108986 0.661084 5.368351 
10.320253 1.908747 240.189743 -3.262362 2.053976 4.798208 
10.190691 1.664269 240.257538 -2.490998 3.521931 4.383142 
9.490388 1.342063 241.360016 2.525909 5.578733 -1.311513 
10.166542 1.258333 240.848541 -1.528758 5.790240 1.451522 
10.335415 1.252595 241.150711 -1.954551 5.798117 0.656776 
10.930894 2.135589 240.839188 -5.588413 0.835707 2.591211 
10.746689 2.140999 240.516357 -5.102604 0.822222 3.468092 
9.550729 1.343095 241.475067 2.481344 5.573577 -1.417572 
9.828221 1.237432 241.455109 1.156815 5.961933 -1.227894 
10.377332 1.263462 241.277924 -2.247021 5.727063 -0.242114 
10.618536 1.398498 241.184128 -3.717972 4.881199 0.298244 
10.420875 1.325166 241.619766 -2.311346 5.588914 -1.193923 
10.667332 1.458841 241.567062 -3.804597 4.762187 -0.831831 
10.979892 2.139594 240.973953 -5.942154 0.811224 1.704613 
9.859718 1.282463 241.666733 1.132860 5.877820 -1.615575 
10.138371 1.295756 241.757523 -0.573672 5.797155 -2.087738 
10.144163 1.264734 241.653915 -0.622355 5.974043 -1.462879 
10.412295 1.359181 241.745041 -2.248800 5.367587 -2.054458 
10.993345 1.897328 241.424332 -5.782566 2.101935 0.030275 
9.809674 1.392156 241.946075 1.285454 5.653611 -2.238318 
10.319924 1.474934 242.066635 -1.916685 5.156412 -2.838145 
10.657514 1.492365 241.708374 -3.738968 4.525986 -1.861545 
10.890969 2.006618 241.987747 -5.428438 1.885695 -2.248190 
10.987941 1.921121 241.575836 -5.745625 1.944446 -1.068613 
10.066205 1.401506 242.022400 -0.333506 5.605247 -2.634602 
9.487836 1.540004 241.996872 2.548174 5.386472 -1.955433 
10.466120 1.947572 242.460953 -3.566823 2.819638 -4.261802 
10.860106 2.025137 242.060089 -5.072347 1.630579 -3.118159 
10.945843 2.259256 241.970703 -5.613388 0.575698 -2.633924 
10.152745 3.694890 239.983398 -0.120330 3.189171 2.762011 
7.441714 4.648243 238.955109 0.217470 3.331738 2.869548 
8.840812 7.015864 246.195999 1.589569 4.328496 -2.372915 
-3.112212 9.084073 244.468338 0.862585 1.520213 -5.904763 
-1.010635 8.315860 244.579117 0.890014 1.594668 -5.897046 
8.094956 4.987392 245.059128 0.855564 1.499180 -5.906324 
-5.213789 9.852285 244.357544 0.884765 1.602563 -5.896693 
-7.215686 10.584061 244.252014 1.126654 1.645298 -5.860115 
8.265771 4.890193 245.051559 0.407721 1.601617 -5.896485 
-7.770478 10.619193 244.136734 1.746939 1.776003 -5.604323 
-10.859332 11.716288 243.949280 1.967987 3.776351 -4.497632 
-7.844084 10.613852 244.108032 2.126771 2.181073 -5.250994 
-10.891056 11.596472 243.720230 2.694653 5.515555 -0.985260 
-8.285254 10.644287 243.859543 2.991946 3.070405 -3.233602 
-8.356011 10.664560 243.805283 3.278509 3.284180 -2.550904 
-10.890491 11.591016 243.671677 2.711527 5.599662 -0.273816 
-8.200208 10.627404 243.918869 2.749249 3.294339 -3.889179 
-10.878548 11.652164 243.869141 2.373842 4.682203 -3.253024 
-12.194591 14.786919 244.469193 3.502641 3.298047 2.315620 
-12.297084 14.762904 244.929214 3.616545 4.493874 -0.526413 
-11.020587 11.771003 243.879486 3.920342 3.294348 -3.539353 
-12.222545 14.724789 245.015411 3.174522 4.570688 -1.244939 
-12.172570 14.702526 245.048294 2.884485 4.568186 -1.567507 
-10.934380 11.776214 243.957169 2.688329 3.041806 -4.699419 
-11.084191 11.782247 243.782959 4.936237 3.317173 -1.781238 
-12.320069 14.777949 244.877716 3.767965 4.411644 -0.146169 
