13.293551 10.453867 17.952087 0.010215 0.747275 -0.664437 
13.141038 10.368111 17.816748 0.245829 0.661191 -0.708798 
13.252801 10.225904 17.785780 0.144251 0.202177 -0.968667 
13.238568 10.053757 17.752293 0.568900 0.288217 -0.770249 
13.642313 9.390704 26.047987 -0.150596 0.935512 -0.319591 
14.066739 9.378905 26.692341 -0.001156 0.955925 0.293610 
13.217946 9.553775 16.682526 0.903588 0.383232 -0.191474 
13.349096 10.400937 17.893070 0.043127 0.755714 -0.653480 
13.659264 10.307484 17.821056 -0.029475 0.347135 -0.937352 
13.565974 8.550316 25.471457 -0.256183 0.438164 -0.861616 
13.413439 9.404169 26.232124 -0.078381 0.994750 -0.065799 
13.331873 9.778960 17.752186 0.520238 0.283521 -0.805586 
13.388449 9.568251 17.670326 0.587407 0.406702 -0.699676 
13.400943 7.519691 25.069588 -0.161128 0.320045 -0.933600 
13.231003 7.628871 25.131073 -0.135923 0.314459 -0.939490 
13.563684 7.983732 25.205070 -0.192834 0.377484 -0.905716 
13.530553 9.198934 25.888781 -0.167345 0.561696 -0.810243 
13.509895 9.053550 17.385757 0.901991 0.381382 -0.202386 
13.556210 9.093610 25.809124 -0.272376 0.556859 -0.784678 
13.753920 10.146793 17.794167 -0.037398 0.075886 -0.996415 
13.771756 9.902232 17.788025 -0.016092 0.045276 -0.998845 
13.339191 9.085027 16.436316 0.853232 0.395508 -0.339955 
13.284120 9.991661 17.757364 0.153876 0.090034 -0.983980 
13.522353 10.463593 17.949053 -0.037728 0.864534 -0.501156 
13.294375 9.432000 16.940414 0.914259 0.396050 -0.085294 
13.571467 8.844662 17.183846 0.897773 0.424929 -0.115927 
13.411338 9.113173 16.689535 0.914153 0.399880 -0.066489 
13.793170 9.660244 17.774813 0.049228 0.117401 -0.991864 
13.540164 8.809565 16.618324 0.865039 0.462118 -0.195332 
13.436763 8.833122 16.394361 0.831683 0.440821 -0.337611 
12.957003 5.502527 23.654182 0.010105 0.874388 -0.485123 
13.111668 5.521284 23.693134 0.014592 0.867280 -0.497606 
13.344398 10.481623 18.105080 -0.086077 0.984410 0.153385 
13.500285 10.405217 17.889572 -0.048733 0.629479 -0.775488 
13.886326 8.221176 16.146189 0.070014 0.798060 -0.598497 
13.797577 7.556748 24.994486 -0.245832 0.317785 -0.915740 
13.849036 7.144152 24.845659 -0.283458 0.300988 -0.910526 
14.048266 9.453081 26.117460 -0.106839 0.993988 0.023930 
13.451369 9.377040 17.622742 0.629011 0.375778 -0.680541 
13.609267 8.479011 16.279324 0.078536 0.336358 -0.938454 
13.736159 8.330025 16.236544 0.286974 0.641677 -0.711264 
13.508899 7.665588 16.094910 -0.116266 0.093984 -0.988761 
14.271126 7.852107 16.019663 -0.118230 0.083996 -0.989427 
13.666286 10.491128 18.037397 -0.060189 0.985881 -0.156254 
14.262764 10.530064 17.998613 -0.088121 0.979692 -0.180109 
13.522577 8.654477 16.334959 0.660321 0.632289 -0.405199 
13.747952 8.530182 16.448225 0.570221 0.808246 -0.146924 
13.901599 8.412892 16.387730 0.348491 0.834778 -0.426262 
13.522734 9.202488 17.571218 0.639784 0.374273 -0.671265 
13.573819 9.022101 17.534225 0.721841 0.284220 -0.631002 
13.759029 9.381214 25.968943 -0.293299 0.774879 -0.559945 
13.241673 5.533279 23.716656 0.015210 0.863583 -0.503978 
13.483183 5.484319 23.642572 0.027198 0.859779 -0.509941 
13.595601 8.748748 16.995533 0.865540 0.494166 -0.081491 
13.724896 7.861402 25.120916 -0.239215 0.337952 -0.910256 
13.705664 8.741819 25.505520 -0.432907 0.422179 -0.796465 
13.731126 8.162557 25.241568 -0.289364 0.375470 -0.880506 
13.712049 9.041030 25.688667 -0.441682 0.510824 -0.737547 
13.636413 8.821254 17.531002 0.647983 0.488921 -0.584016 
13.673875 8.680527 17.285482 0.736189 0.646547 -0.200006 
14.073893 9.407393 26.547810 -0.036645 0.988346 0.147745 
14.783496 9.464959 26.347214 -0.041022 0.988557 0.145165 
14.126733 9.444967 26.255583 -0.053281 0.994019 0.095325 
14.509380 9.467431 26.224110 -0.046958 0.992696 0.111131 
13.883225 9.232521 17.736372 0.144120 0.152675 -0.977712 
13.698067 8.591951 16.867340 0.681018 0.728537 -0.073812 
13.636469 8.642483 16.577959 0.740266 0.656066 -0.146915 
13.618105 9.414637 26.284592 -0.060413 0.996346 0.060380 
13.889181 8.957678 17.701151 0.199636 0.301038 -0.932482 
13.926111 9.416464 25.944448 -0.189812 0.981734 -0.013052 
14.084869 10.424389 17.846153 -0.106244 0.621957 -0.775810 
14.229606 10.334991 17.776224 -0.108465 0.313749 -0.943290 
14.362694 10.199999 17.744568 -0.099455 0.077938 -0.991985 
13.759583 8.572773 17.050365 0.599999 0.794218 -0.096017 
13.895360 8.457932 16.798271 0.366870 0.928589 -0.055943 
13.814385 8.506007 16.631392 0.479677 0.875311 -0.061151 
13.976696 8.420188 25.247688 -0.373543 0.326539 -0.868238 
13.979946 8.740767 25.362514 -0.446919 0.326713 -0.832780 
13.859602 9.224608 25.747896 -0.459658 0.620359 -0.635507 
13.950870 9.267496 25.715481 -0.537150 0.623566 -0.568011 
13.931176 9.022522 25.529474 -0.519536 0.448577 -0.727228 
13.931276 8.080585 25.137476 -0.315145 0.326145 -0.891242 
13.892696 7.741480 25.031210 -0.278742 0.310579 -0.908759 
14.085198 8.334633 16.326920 -0.000528 0.895137 -0.445791 
14.205381 9.483870 25.819298 -0.238704 0.966082 -0.098522 
14.067776 9.437533 25.814878 -0.380170 0.808223 -0.449719 
13.763422 8.690048 17.464539 0.450948 0.691414 -0.564440 
13.994512 8.807687 17.618000 0.146564 0.450802 -0.880509 
12.812386 4.501991 20.780457 0.113532 0.992349 0.048515 
12.444931 4.544254 20.773846 0.113586 0.991760 0.059249 
14.423134 9.972403 17.731764 -0.096660 0.035568 -0.994682 
14.020339 8.417626 16.563375 0.148319 0.974116 -0.170588 
13.823891 8.539889 17.223265 0.486402 0.854365 -0.182957 
14.056768 8.457949 17.154234 0.132482 0.987006 -0.090923 
13.984334 8.460044 16.978930 0.148827 0.984709 -0.090544 
14.677491 4.552682 21.578592 -0.083704 0.976380 -0.199189 
14.031610 6.991645 24.736626 -0.351698 0.322290 -0.878884 
13.850389 9.457664 17.759171 0.097241 0.106944 -0.989498 
14.465342 9.624799 17.713095 -0.096151 0.050506 -0.994085 
13.855718 6.916299 19.054018 -0.200853 0.705223 0.679940 
13.978496 6.732983 19.254084 -0.323359 0.392242 0.861154 
14.258682 6.872995 19.232637 -0.231911 0.712727 0.661995 
14.211403 9.277642 26.793854 0.157208 0.591175 0.791074 
14.791980 9.356825 26.617260 0.138315 0.635468 0.759638 
14.439482 9.386395 26.656839 0.078444 0.826004 0.558179 
14.507259 9.280078 17.688602 -0.091197 0.074205 -0.993064 
14.286808 8.306391 16.231834 -0.106961 0.858517 -0.501506 
14.491518 8.277632 16.147949 -0.099350 0.769280 -0.631140 
14.685203 8.220289 16.070326 -0.064987 0.718249 -0.692745 
14.552948 9.074256 17.667955 -0.086321 0.108511 -0.990340 
14.602247 8.840063 17.630013 -0.061052 0.259165 -0.963902 
14.159828 8.017021 25.035398 -0.309311 0.301258 -0.901982 
14.340598 7.917137 24.941759 -0.310577 0.298875 -0.902339 
14.163305 7.534873 24.874500 -0.314878 0.307485 -0.897945 
14.041485 7.309871 24.840528 -0.294187 0.301893 -0.906816 
13.901430 10.478077 17.934193 -0.059979 0.852412 -0.519419 
15.347193 4.584960 21.155647 -0.143562 0.989544 0.013907 
13.919033 8.547489 17.404009 0.349943 0.831036 -0.432342 
14.189588 9.302719 25.486032 -0.637779 0.571582 -0.516267 
14.290954 9.087473 25.305557 -0.510562 0.297393 -0.806774 
14.271517 8.413000 25.126143 -0.340314 0.286769 -0.895517 
13.937675 6.715457 19.242893 -0.308104 0.337891 0.889327 
13.409562 6.777555 19.055868 -0.202267 0.572997 0.794206 
14.867748 9.187263 26.710011 0.182921 0.402887 0.896784 
14.160495 9.446298 25.756252 -0.438817 0.821771 -0.363501 
14.318917 9.428885 25.486950 -0.585089 0.713510 -0.385454 
14.087526 4.695755 22.117464 0.028229 0.933321 -0.357931 
13.787489 4.753086 22.214056 0.080890 0.921070 -0.380903 
13.471256 4.827964 22.311884 0.108046 0.916081 -0.386162 
14.437238 8.806608 25.164385 -0.406336 0.194055 -0.892880 
14.515083 8.571013 25.077835 -0.343013 0.228684 -0.911069 
14.699507 6.839142 19.433170 -0.257956 0.630019 0.732485 
14.358884 8.912067 25.220694 -0.416815 0.202982 -0.886038 
14.221969 8.456886 16.891512 -0.066800 0.995272 -0.070515 
14.116114 8.621490 17.582006 0.111453 0.574172 -0.811113 
15.117227 4.558909 21.302996 -0.127543 0.988904 -0.076171 
14.452862 9.496291 25.922955 -0.060892 0.993598 0.095161 
14.426494 9.518576 25.625374 -0.175750 0.984320 -0.015022 
14.142678 8.468354 17.325464 0.061006 0.962701 -0.263600 
14.615435 9.431499 26.505705 -0.027520 0.981371 0.190141 
14.223766 8.411685 16.473118 -0.115170 0.963853 -0.240258 
14.464943 8.416444 16.373655 -0.141840 0.926143 -0.349486 
14.090448 10.515980 18.178759 -0.050954 0.992961 0.106921 
14.042371 10.498025 18.323982 -0.058586 0.988965 0.136073 
14.389777 10.507588 18.390099 -0.063427 0.961718 0.266600 
14.308413 8.564956 17.511862 -0.046614 0.737179 -0.674087 
14.722279 8.531586 17.315304 -0.124594 0.986785 -0.103591 
14.542486 8.501806 17.098595 -0.108142 0.992578 -0.055626 
14.482192 8.341520 25.030560 -0.323708 0.266234 -0.907928 
14.428558 9.502668 25.493444 -0.426827 0.885526 -0.183475 
14.223438 7.212557 24.735535 -0.365366 0.331873 -0.869694 
14.248713 9.336137 25.444057 -0.637164 0.527653 -0.561787 
14.244435 8.441522 16.688206 -0.189509 0.976165 -0.105779 
14.584657 8.458465 16.549076 -0.106806 0.987628 -0.114819 
14.888516 10.436880 17.731899 -0.116761 0.462655 -0.878816 
15.008611 10.292648 17.683489 -0.113688 0.134788 -0.984331 
12.166504 4.589497 20.613886 0.097063 0.986850 0.129253 
12.284919 4.568873 20.694225 0.107717 0.990181 0.089101 
14.530218 8.477611 16.770243 -0.102023 0.990798 -0.088945 
14.385097 9.322794 25.274031 -0.826746 0.187589 -0.530379 
14.398138 9.128514 25.251171 -0.655284 0.082643 -0.750848 
14.835490 10.576551 17.978443 -0.065655 0.997557 -0.023871 
15.108171 10.584085 17.884151 -0.085777 0.957598 -0.275044 
14.506364 10.530272 17.903913 -0.098064 0.921368 -0.376117 
14.672251 8.415393 16.292191 -0.140400 0.868851 -0.474748 
14.493592 8.519392 17.427727 -0.104785 0.907200 -0.407442 
14.736945 8.722380 17.583302 -0.089000 0.463786 -0.881466 
14.657460 9.480019 24.852770 -0.753593 0.527867 -0.391733 
14.499582 7.797896 24.845373 -0.321164 0.313518 -0.893622 
14.651758 7.954128 24.843561 -0.312739 0.300240 -0.901138 
14.569316 10.507996 18.426147 -0.065690 0.950207 0.304616 
14.969985 10.537819 18.370592 -0.042789 0.979158 0.198543 
14.706131 10.542013 18.240021 -0.049366 0.992488 0.111942 
14.390194 7.418542 24.747484 -0.342269 0.330083 -0.879714 
14.521728 9.289762 25.058277 -0.814588 -0.145081 -0.561602 
14.597706 9.055981 25.063889 -0.746415 -0.243117 -0.619482 
14.649244 8.863273 25.067219 -0.613431 -0.064337 -0.787123 
14.417086 6.704176 24.407509 -0.603543 0.350040 -0.716385 
14.452200 7.148940 24.609442 -0.398857 0.402219 -0.824095 
14.519733 6.891647 24.420208 -0.566665 0.438937 -0.697298 
15.090396 10.115200 17.666090 -0.107981 0.038852 -0.993393 
14.575867 9.528375 25.255451 -0.328636 0.938694 -0.104175 
14.606536 9.508035 25.053528 -0.530777 0.820858 -0.210873 
14.898117 8.638683 24.920952 -0.768859 -0.196074 -0.608614 
14.774382 8.389578 24.935936 -0.315715 0.200161 -0.927502 
14.994790 9.449907 26.462729 0.003095 0.954465 0.298306 
15.369342 9.454747 26.421278 0.071205 0.821129 0.566283 
14.727780 7.427250 24.614113 -0.331896 0.353635 -0.874521 
15.197288 7.500836 24.470776 -0.313543 0.481911 -0.818201 
14.964727 9.494732 26.175447 -0.045888 0.991789 0.119371 
14.773272 9.568484 25.399309 -0.077399 0.992632 0.093227 
14.975756 9.558824 25.615917 -0.056823 0.992314 0.109929 
15.091539 8.492213 16.370558 -0.121626 0.978026 -0.169331 
14.667748 8.215918 24.924055 -0.303310 0.310742 -0.900801 
14.805067 8.190873 24.870167 -0.291797 0.292167 -0.910765 
14.915284 8.392089 16.204699 -0.149272 0.780986 -0.606448 
14.870956 8.623487 17.478258 -0.125529 0.733367 -0.668143 
15.093572 8.601335 17.391376 -0.137010 0.910753 -0.389560 
14.932250 7.785714 24.688902 -0.279240 0.328974 -0.902109 
14.816440 7.602729 24.656549 -0.311975 0.365133 -0.877126 
15.371983 10.571626 17.795145 -0.099746 0.855741 -0.507699 
14.723894 10.504977 17.818068 -0.111783 0.762603 -0.637136 
15.001885 9.714377 17.662210 -0.105535 0.044496 -0.993420 
15.156748 9.390841 17.627861 -0.106404 0.060772 -0.992464 
14.621944 6.664939 24.189028 -0.718833 0.273231 -0.639237 
14.953157 8.554399 17.197451 -0.125005 0.989850 -0.067603 
15.142324 8.525811 16.560720 -0.125909 0.985475 -0.113955 
14.549843 9.235879 26.753309 0.164456 0.561991 0.810630 
15.206783 9.193210 17.609484 -0.106570 0.072737 -0.991641 
15.305276 9.029500 17.585524 -0.108569 0.123090 -0.986439 
15.075444 9.631193 24.976002 -0.120477 0.989142 0.084165 
15.046385 9.663408 24.629440 -0.284110 0.957726 -0.045182 
14.580811 7.551578 24.723106 -0.336985 0.340649 -0.877724 
15.379523 8.842274 17.545149 -0.121204 0.292728 -0.948483 
15.052342 9.629974 24.434799 -0.529050 0.764374 -0.368562 
14.616963 6.647186 19.455269 -0.282635 0.002562 0.959224 
15.193896 6.674878 19.659760 -0.340550 -0.190934 0.920636 
14.718640 6.776383 19.475338 -0.313993 0.303747 0.899526 
14.705861 6.848917 24.209394 -0.623222 0.525996 -0.578725 
14.774108 6.635026 23.981531 -0.809087 0.161149 -0.565163 
14.870906 8.007317 24.788406 -0.287492 0.311474 -0.905722 
15.456051 6.084748 19.679516 -0.336259 -0.007328 0.941741 
15.605821 6.167845 19.741976 -0.380187 -0.053608 0.923355 
12.387660 4.777726 21.786901 0.135577 0.935755 -0.325548 
12.715843 4.686255 21.671379 0.144402 0.935554 -0.322316 
12.373312 5.812771 19.162893 -0.113074 0.395688 0.911397 
14.698194 10.497581 18.480209 -0.040723 0.917396 0.395886 
13.448647 6.054379 19.217674 -0.159916 0.176911 0.971148 
14.796001 7.137737 24.419355 -0.420698 0.569854 -0.705889 
15.286104 10.574644 18.188770 -0.067863 0.992419 0.102468 
14.932389 10.558772 18.136599 -0.049278 0.993491 0.102700 
15.971272 6.898703 20.003731 -0.509912 0.536870 0.672131 
15.705656 6.953836 19.818638 -0.305988 0.799750 0.516499 
15.423129 6.955674 19.613585 -0.250192 0.882359 0.398556 
15.318328 8.608912 17.286127 -0.137414 0.980122 -0.143101 
15.200921 4.675524 21.832872 -0.158516 0.951147 -0.264937 
14.749829 9.250279 24.745150 -0.768863 -0.271905 -0.578721 
14.770491 9.450138 24.636684 -0.807711 0.193224 -0.557017 
14.919341 9.414333 24.446089 -0.743633 -0.035093 -0.667666 
15.200870 9.644769 24.965946 -0.084827 0.991267 0.100965 
14.914201 6.604127 23.775990 -0.812026 -0.014375 -0.583444 
14.772113 6.415689 23.965647 -0.768932 0.032932 -0.638482 
15.065400 6.783937 23.558199 -0.851215 0.105161 -0.514174 
14.972410 8.374707 24.883055 -0.471735 0.065961 -0.879270 
15.158618 9.486099 26.307684 -0.034676 0.986053 0.162779 
15.007259 7.022177 24.163591 -0.404722 0.761461 -0.506337 
15.188494 8.119951 24.720963 -0.465301 0.153418 -0.871756 
15.118133 7.926072 24.685972 -0.307729 0.309871 -0.899601 
15.359192 7.661084 24.504320 -0.350138 0.377504 -0.857260 
15.705136 10.625360 17.856241 -0.076712 0.983908 -0.161368 
14.841524 8.797489 24.857485 -0.755111 -0.348916 -0.555035 
15.525249 8.719357 17.467533 -0.133786 0.605539 -0.784490 
15.534524 10.526359 17.709272 -0.121304 0.665797 -0.736206 
14.928730 8.575664 24.878611 -0.843554 -0.275487 -0.461002 
15.190442 6.756176 23.350615 -0.830685 -0.035730 -0.555596 
15.170320 6.576498 23.423782 -0.804624 -0.139218 -0.577234 
15.155844 9.578878 24.254492 -0.624228 0.476052 -0.619447 
15.358613 9.522290 24.044182 -0.651346 0.096993 -0.752556 
15.188899 8.249391 24.703924 -0.708847 -0.216686 -0.671256 
14.951379 6.810633 23.760033 -0.774312 0.488245 -0.402564 
15.129968 6.993633 23.956192 -0.399871 0.887049 -0.230753 
15.152142 6.995154 23.744896 -0.499255 0.861103 -0.096153 
15.223122 7.001894 23.532194 -0.459299 0.880620 -0.116420 
15.324440 8.597217 17.082098 -0.136186 0.987957 -0.073448 
15.288390 9.539465 25.924532 -0.047549 0.991838 0.118309 
15.074879 7.850993 15.923203 -0.103283 0.105562 -0.989034 
15.324570 8.060140 24.619598 -0.662277 -0.117203 -0.740036 
15.381002 9.559497 25.794083 -0.049547 0.991728 0.118408 
15.368029 9.680462 24.748796 -0.062623 0.991449 0.114490 
15.486179 9.653406 25.038717 -0.054626 0.991723 0.116198 
15.554739 9.504459 26.271002 -0.027190 0.981589 0.189061 
15.971747 4.761914 21.378201 -0.415344 0.867971 -0.272242 
15.816422 10.016726 17.583317 -0.112480 0.031881 -0.993142 
15.797515 9.614900 17.569942 -0.112025 0.047156 -0.992586 
15.170649 7.223217 24.294977 -0.326020 0.607736 -0.724132 
15.493692 7.175744 24.114729 -0.357662 0.742756 -0.566031 
15.656326 7.153778 23.926943 -0.363965 0.884055 -0.293218 
15.681458 10.432405 17.625986 -0.135527 0.361184 -0.922594 
15.015858 10.511313 18.473299 -0.026929 0.911634 0.410120 
15.068657 8.427169 24.770584 -0.751616 -0.297125 -0.588889 
15.868811 8.576158 16.268341 -0.134737 0.961260 -0.240469 
15.322871 8.500217 16.268335 -0.134273 0.943426 -0.303181 
15.092459 8.997210 24.487003 -0.678947 -0.298246 -0.670881 
15.149380 9.368480 24.249493 -0.640023 -0.237732 -0.730653 
15.434672 9.264333 24.061420 -0.612376 -0.292019 -0.734657 
15.361504 8.844004 24.288382 -0.657465 -0.260608 -0.706982 
15.665512 8.701792 17.418633 -0.159805 0.797068 -0.582361 
15.102928 8.547766 24.665602 -0.726076 -0.296855 -0.620235 
15.338103 8.311285 24.507566 -0.710198 -0.267028 -0.651395 
15.960983 10.618282 17.766174 -0.102704 0.918731 -0.381295 
15.687917 7.143838 23.725807 -0.269328 0.958921 -0.089068 
15.136415 8.368049 16.116360 -0.149188 0.780929 -0.606541 
15.543411 8.489804 16.164902 -0.153093 0.837251 -0.524951 
16.175673 8.638094 16.359175 -0.146633 0.973905 -0.173229 
15.144196 6.107733 23.514498 -0.761986 0.010707 -0.647505 
15.446838 6.068764 23.158051 -0.772922 -0.048618 -0.632636 
15.148472 9.355710 26.556459 0.128447 0.652581 0.746753 
15.688205 9.469278 23.783009 -0.644156 -0.123778 -0.754813 
15.746831 9.239858 23.819870 -0.595169 -0.278561 -0.753775 
15.648842 9.736006 24.008247 -0.387704 0.867806 -0.310801 
15.788863 9.691979 23.806082 -0.539577 0.674326 -0.504124 
15.917576 9.651252 23.606796 -0.669121 0.502488 -0.547524 
15.265194 6.595473 23.284395 -0.805478 -0.157225 -0.571389 
15.441339 6.272534 23.131968 -0.790084 -0.132792 -0.598442 
15.823398 9.276440 26.481436 0.170350 0.462685 0.870002 
15.464364 7.860023 24.518095 -0.563664 0.097189 -0.820266 
15.408827 8.083579 24.521181 -0.697773 -0.272336 -0.662531 
15.350911 6.960766 23.114813 -0.692991 0.518271 -0.501157 
15.416116 6.637526 23.058548 -0.818918 -0.159499 -0.551302 
15.191144 10.555213 18.322771 -0.046524 0.990272 0.131136 
15.308071 10.556320 18.350935 -0.045796 0.982863 0.178560 
15.583526 10.573048 18.311579 0.004523 0.982440 0.186525 
15.572747 10.617723 17.970409 -0.051240 0.996355 0.068197 
15.656875 6.728355 19.831867 -0.383308 -0.243145 0.891042 
15.517986 7.402950 24.291130 -0.392474 0.508463 -0.766440 
15.354109 9.717564 24.412487 -0.181117 0.983092 -0.026965 
15.900651 9.391010 17.546227 -0.111227 0.058717 -0.992059 
15.244617 6.319445 23.377089 -0.787174 -0.103536 -0.607978 
15.698959 6.003155 22.849285 -0.790065 -0.100275 -0.604766 
15.563058 6.345386 19.739517 -0.372721 -0.094267 0.923143 
15.360557 6.247656 19.653648 -0.338971 -0.060840 0.938828 
15.794333 6.072780 19.816389 -0.414908 -0.042498 0.908871 
15.263987 8.602104 24.469288 -0.686714 -0.262382 -0.677923 
15.550902 8.278897 24.311842 -0.651065 -0.235802 -0.721465 
15.507519 8.121534 24.405687 -0.682000 -0.251384 -0.686791 
15.791228 6.273696 22.660709 -0.808338 -0.179982 -0.560532 
15.270688 6.999990 23.312597 -0.574425 0.771144 -0.274540 
15.605482 7.088443 23.440859 -0.251425 0.961215 -0.113366 
15.703609 9.534016 26.124496 -0.040287 0.988971 0.142524 
16.122971 9.063226 17.498278 -0.108850 0.109561 -0.988002 
15.417968 10.549682 18.407166 -0.037942 0.962415 0.268921 
15.571168 8.636988 17.178732 -0.135003 0.987761 -0.078116 
15.727993 8.684556 17.358652 -0.153765 0.937368 -0.312565 
15.971338 8.700042 17.253973 -0.177914 0.964316 -0.196066 
16.206617 8.582787 16.125017 -0.154925 0.923897 -0.349874 
15.488782 8.594300 16.763256 -0.121675 0.988338 -0.091561 
15.658293 7.834750 24.340403 -0.674303 -0.118837 -0.728830 
15.344100 8.335732 16.026123 -0.152147 0.765190 -0.625569 
15.785431 8.462763 16.074034 -0.165877 0.752040 -0.637903 
16.032667 8.447642 15.988285 -0.164533 0.734236 -0.658655 
16.218445 8.402816 15.900114 -0.153377 0.712046 -0.685176 
15.541379 7.653105 24.414255 -0.519054 0.302602 -0.799385 
16.050554 9.726323 24.696201 -0.055881 0.990870 0.122697 
15.729748 9.438912 26.384144 0.103585 0.704197 0.702408 
16.290121 9.034179 17.476385 -0.106455 0.141539 -0.984192 
15.868092 8.875452 17.488716 -0.137155 0.364899 -0.920890 
16.235260 9.584167 25.919443 -0.041869 0.990029 0.134496 
15.666706 7.986869 24.296621 -0.664127 -0.198228 -0.720861 
15.719067 6.844804 22.496292 -0.847900 0.020930 -0.529742 
15.847934 6.819243 22.292412 -0.846910 -0.122627 -0.517403 
15.983180 6.785065 22.082434 -0.819007 -0.317917 -0.477657 
15.249306 10.520403 18.465675 -0.024254 0.885127 0.464718 
15.431820 5.830165 23.178719 -0.748533 0.058951 -0.660471 
15.748650 5.570308 22.782492 -0.724264 0.238969 -0.646789 
15.580301 5.606561 22.976133 -0.694152 0.266555 -0.668656 
15.955957 8.685604 23.845322 -0.594373 -0.239820 -0.767598 
15.713378 8.486730 24.103832 -0.625264 -0.242194 -0.741881 
15.464230 6.921159 22.912371 -0.774260 0.432369 -0.462146 
15.661167 7.074507 23.124556 -0.302995 0.938370 -0.166299 
15.587608 6.879177 22.709593 -0.848336 0.035504 -0.528267 
15.781924 7.077706 22.883430 -0.344860 0.925731 -0.155223 
15.884133 7.051994 22.477695 -0.370873 0.911801 -0.176272 
15.971198 7.046846 22.274252 -0.372228 0.911036 -0.177369 
16.081490 7.040365 22.017065 -0.607690 0.732102 -0.307798 
15.973968 9.665688 25.157549 -0.052785 0.991439 0.119423 
15.493646 9.326189 26.519930 0.152271 0.541461 0.826821 
16.085642 9.437166 26.335480 0.124435 0.635123 0.762322 
15.700611 7.346374 24.140163 -0.537605 0.475071 -0.696626 
15.877756 7.283808 23.936266 -0.497507 0.682211 -0.535795 
14.577588 4.512356 21.389469 -0.083144 0.987063 -0.137088 
12.231306 4.832040 21.884708 0.111357 0.946327 -0.303422 
16.098928 8.000618 23.928476 -0.607173 -0.200986 -0.768730 
15.926815 9.521505 26.233185 -0.009187 0.960811 0.277051 
16.477156 9.575842 26.037949 -0.032550 0.984326 0.173330 
15.718890 8.596860 16.527861 -0.132627 0.985727 -0.103697 
15.604156 10.571842 18.314606 -0.022238 0.988275 0.151057 
15.602821 5.358478 22.798382 -0.641599 0.432206 -0.633678 
15.788363 5.326110 22.585045 -0.656958 0.450439 -0.604576 
15.609587 5.130827 22.602404 -0.469170 0.690359 -0.550711 
15.942192 10.595563 18.260267 -0.037295 0.987061 0.155945 
15.607327 7.095528 23.483896 -0.260080 0.957272 -0.126451 
16.016552 7.210595 23.471220 -0.275140 0.954371 -0.116078 
16.108671 7.205592 23.246840 -0.260864 0.956748 -0.128775 
15.618376 9.755713 24.237452 -0.147187 0.989106 0.002352 
15.688622 9.745469 24.377211 -0.064682 0.991051 0.116762 
16.274933 9.838072 23.921978 -0.066591 0.989960 0.124676 
15.625477 7.608357 24.325520 -0.620440 0.306221 -0.721999 
15.787646 7.522373 24.117395 -0.607040 0.374229 -0.701039 
15.801282 7.744157 24.217974 -0.639267 0.097991 -0.762716 
16.149015 7.751964 23.936493 -0.607536 0.043417 -0.793105 
15.947552 9.807236 23.893713 -0.223000 0.973823 -0.044049 
16.250177 9.873050 23.607571 -0.150203 0.985968 0.072844 
16.414993 7.361691 23.492725 -0.506703 0.758487 -0.409816 
16.485634 7.324364 23.262604 -0.357580 0.906323 -0.225198 
15.958889 6.691697 20.006475 -0.591955 -0.265726 0.760907 
16.139023 6.878578 20.202452 -0.711607 0.597803 0.369116 
16.103546 8.814647 17.415438 -0.149079 0.618398 -0.771596 
16.401720 8.787086 17.314644 -0.162832 0.895611 -0.413964 
15.865137 8.003209 24.118832 -0.624007 -0.205008 -0.754047 
15.680165 6.531703 19.809456 -0.418971 -0.135462 0.897838 
15.775558 6.275709 19.824043 -0.426274 -0.091994 0.899904 
15.934877 6.240257 19.902000 -0.471660 -0.107869 0.875158 
16.006235 6.422244 19.970743 -0.519359 -0.165555 0.838366 
16.360029 10.547592 17.573128 -0.127115 0.377499 -0.917244 
15.686189 6.588648 22.691250 -0.790403 -0.311129 -0.527695 
16.060575 6.407805 22.191753 -0.827725 -0.253859 -0.500426 
15.984361 9.667535 23.530622 -0.683249 0.656678 -0.319287 
16.109880 9.726929 23.353073 -0.729374 0.600760 -0.327264 
16.044502 9.635010 23.388655 -0.792659 0.014694 -0.609488 
16.422863 9.799545 24.283632 -0.054288 0.990269 0.128137 
15.981695 7.517492 23.960718 -0.570071 0.342819 -0.746656 
16.310942 7.442785 23.702803 -0.563767 0.511639 -0.648377 
16.314064 10.669238 17.827221 -0.059303 0.997763 0.030842 
16.572945 10.682632 17.739168 -0.111117 0.935732 -0.334751 
16.278013 7.067988 20.058050 -0.384889 0.893683 0.230632 
16.146126 7.064936 19.817678 -0.232328 0.954631 0.186287 
16.667519 9.540501 26.149683 0.084465 0.780786 0.619063 
16.304934 9.535213 26.190651 0.025311 0.902350 0.430260 
15.961371 9.429917 23.589722 -0.489331 -0.470326 -0.734404 
16.059757 9.190981 23.602570 -0.655548 -0.292465 -0.696220 
15.757848 10.246437 17.595736 -0.112621 0.035631 -0.992999 
16.490744 10.423487 17.519905 -0.115828 0.106815 -0.987509 
16.593321 10.242939 17.499868 -0.111832 0.039920 -0.992925 
15.776984 5.789881 22.773148 -0.780924 0.000235 -0.624626 
16.001463 5.927200 22.456068 -0.814268 -0.133795 -0.564859 
15.950835 5.741466 22.549833 -0.791584 -0.016918 -0.610827 
15.850022 7.070071 22.682636 -0.327938 0.933997 -0.141800 
15.811800 5.102343 22.376701 -0.558425 0.649351 -0.516241 
15.998021 5.517385 22.475439 -0.756270 0.236364 -0.610072 
16.223614 5.461737 22.159544 -0.784277 0.248951 -0.568271 
16.041651 9.768674 23.603582 -0.598937 0.686549 -0.412220 
16.646477 10.054664 17.488333 -0.118227 0.032789 -0.992445 
15.808701 7.571569 24.141216 -0.570482 0.461268 -0.679546 
16.761513 9.372114 26.254713 0.152226 0.504861 0.849672 
12.224191 4.648096 21.300400 0.155288 0.946058 -0.284357 
15.970825 5.428423 19.915794 -0.376389 0.092427 0.921840 
15.832770 10.555500 18.437643 -0.038821 0.861856 0.505665 
13.683935 6.442163 19.211546 -0.213680 0.055337 0.975335 
16.187901 7.176867 22.907084 -0.238206 0.961813 -0.134813 
16.284632 7.159711 22.605223 -0.238419 0.962658 -0.128239 
16.471462 8.917278 17.434647 -0.134867 0.453670 -0.880906 
15.894960 7.803268 24.136932 -0.639215 -0.089696 -0.763779 
16.724527 9.753163 17.467220 -0.117994 0.040701 -0.992180 
16.686113 9.379117 17.455589 -0.113607 0.051614 -0.992184 
16.153584 9.159342 17.502474 -0.112011 0.072010 -0.991094 
15.902671 9.802102 23.966639 -0.177497 0.984082 -0.008769 
15.931475 5.066883 22.180729 -0.551368 0.723979 -0.414545 
16.351980 5.188998 21.768524 -0.691722 0.523250 -0.497725 
16.486765 5.177282 21.566183 -0.691265 0.587394 -0.420858 
16.135157 10.590688 18.321665 -0.056380 0.975876 0.210920 
16.324762 10.655322 17.939318 -0.044848 0.990455 0.130339 
16.106693 5.701070 22.342775 -0.811639 -0.021283 -0.583772 
16.246315 8.665213 23.629618 -0.613421 -0.219085 -0.758760 
16.369326 8.232610 23.663828 -0.619077 -0.221405 -0.753474 
16.069510 6.455869 20.021584 -0.593583 -0.215040 0.775511 
16.246462 6.295095 20.120687 -0.715586 -0.272845 0.643033 
16.221153 6.892088 20.434240 -0.870736 0.320900 0.372615 
16.192476 10.601950 17.667919 -0.124259 0.832519 -0.539881 
15.961211 9.184233 17.525766 -0.109221 0.071911 -0.991413 
16.440378 7.144290 22.184155 -0.236629 0.965593 -0.107873 
16.529049 7.135301 21.870010 -0.230319 0.970184 -0.075475 
16.554701 7.127667 21.652277 -0.215202 0.975186 -0.051960 
16.566160 7.120953 21.454720 -0.223122 0.973915 -0.041299 
16.007626 8.720652 17.293390 -0.183117 0.960510 -0.209496 
16.344408 8.750196 17.127216 -0.158572 0.981367 -0.108509 
16.251057 8.720110 16.923958 -0.157460 0.983623 -0.087703 
16.487265 7.669357 23.682146 -0.632275 0.167052 -0.756520 
16.277342 6.946086 21.456741 -0.891187 0.294206 -0.345293 
15.986544 10.636050 17.953268 -0.042104 0.988961 0.142070 
16.329012 5.996799 21.925711 -0.845528 -0.198120 -0.495813 
16.111660 6.057741 19.977278 -0.516988 -0.075940 0.852618 
16.257513 6.155244 20.089907 -0.621320 -0.155934 0.767884 
16.007717 7.085475 19.616430 -0.210366 0.928557 0.305823 
16.535542 7.213613 19.606195 -0.229714 0.926980 0.296547 
14.195995 6.416148 19.330168 -0.238380 -0.013837 0.971073 
13.939917 6.413025 19.271164 -0.223591 0.027205 0.974303 
16.561419 7.305964 23.044838 -0.305386 0.935305 -0.178731 
16.022301 5.044840 21.973883 -0.490618 0.806348 -0.330299 
15.612709 4.691776 21.556303 -0.242209 0.944219 -0.223128 
16.204496 9.600226 23.191250 -0.791854 -0.242069 -0.560686 
16.283442 9.373146 23.228933 -0.769301 -0.335162 -0.543915 
16.341944 9.787130 22.974403 -0.822763 0.375852 -0.426376 
16.071436 9.664818 25.207077 -0.051736 0.991313 0.120925 
16.437145 9.750273 24.676405 -0.052424 0.990761 0.125081 
16.107794 6.754166 21.882471 -0.836238 -0.301562 -0.458003 
16.289982 6.413376 21.772205 -0.852079 -0.280236 -0.442073 
16.225157 6.973221 21.662876 -0.820739 0.453566 -0.347369 
16.540525 7.100464 21.040380 -0.422511 0.905733 -0.033650 
17.026180 9.521835 26.104769 0.123759 0.640351 0.758046 
16.101545 5.004345 21.775911 -0.513575 0.780080 -0.357373 
16.226130 4.973811 21.519258 -0.516236 0.776882 -0.360492 
15.905429 4.799352 21.580383 -0.423121 0.849988 -0.313829 
16.762314 8.882432 17.339960 -0.167826 0.783167 -0.598736 
16.251194 5.677787 22.138491 -0.832803 -0.043359 -0.551869 
16.224943 6.722735 21.678904 -0.852577 -0.329621 -0.405541 
16.320255 9.887712 23.361423 -0.450236 0.886339 -0.108120 
16.238850 9.817331 23.183853 -0.690003 0.665267 -0.285159 
13.757382 4.446132 21.048994 -0.020603 0.999591 -0.019823 
15.624278 4.715128 21.638195 -0.257983 0.935132 -0.242843 
16.467392 10.600677 18.384438 -0.055633 0.987046 0.150486 
16.364183 7.073285 20.260015 -0.472856 0.870438 0.136913 
16.475687 7.913940 23.658535 -0.613047 -0.151246 -0.775434 
16.970015 9.078485 17.407135 -0.115325 0.064773 -0.991214 
16.166784 6.661858 20.239931 -0.779830 -0.335197 0.528685 
16.264837 6.440957 20.235571 -0.799315 -0.340020 0.495461 
16.344149 6.515902 20.443113 -0.843358 -0.375209 0.384662 
16.319574 6.879891 20.638126 -0.841349 0.498159 0.209688 
16.403986 6.888171 21.046795 -0.987663 0.153909 -0.028866 
16.334934 6.888921 20.845148 -0.910550 0.342248 0.231872 
16.665869 8.722133 16.407045 -0.155842 0.975855 -0.153040 
16.666796 8.674555 16.160309 -0.161555 0.948961 -0.270876 
16.711576 7.277128 22.626329 -0.285022 0.945405 -0.158025 
16.203144 5.587052 20.011852 -0.482951 -0.001886 0.875645 
16.548006 5.354703 20.220823 -0.718933 0.146120 0.679547 
16.158016 5.829190 19.993843 -0.508701 -0.042212 0.859908 
16.387943 9.712232 22.847528 -0.876079 -0.066026 -0.477626 
16.372507 9.573126 22.950161 -0.794874 -0.324598 -0.512651 
16.204714 9.655938 25.335239 -0.048650 0.991112 0.123813 
16.208834 8.781169 23.627827 -0.642881 -0.259925 -0.720516 
16.649548 8.114780 23.447895 -0.712136 -0.274905 -0.645979 
13.795721 6.228775 19.254789 -0.192881 0.113163 0.974675 
16.361582 6.907700 21.252924 -0.942059 -0.002277 -0.335439 
16.387396 6.549614 21.476221 -0.865554 -0.367477 -0.340259 
16.227711 5.227577 21.969498 -0.698417 0.476633 -0.533886 
16.335178 5.425321 21.975990 -0.792493 0.260726 -0.551341 
16.690233 9.619793 25.799311 -0.044072 0.989819 0.135337 
16.251444 9.876608 23.518433 -0.347441 0.934798 -0.073739 
16.268349 8.682279 16.555506 -0.149074 0.981658 -0.118845 
16.715302 8.796139 16.952654 -0.160558 0.983487 -0.083511 
16.474859 5.818727 20.208071 -0.745230 -0.172079 0.644221 
16.431166 6.005510 20.235487 -0.828188 -0.284840 0.482670 
16.270113 9.828620 23.153223 -0.586709 0.762474 -0.272774 
16.305532 9.869278 23.695705 -0.084271 0.989414 0.118148 
16.657978 9.875112 23.812643 -0.053091 0.989595 0.133731 
16.550175 7.100821 20.824858 -0.509504 0.859500 0.040801 
16.596527 7.169560 19.818922 -0.249593 0.952844 0.172600 
16.278021 4.929249 21.355116 -0.499782 0.792601 -0.349288 
16.717443 9.130982 22.716619 -0.788697 -0.342081 -0.510820 
16.781538 7.265759 22.425468 -0.278336 0.949686 -0.143616 
16.286619 9.076510 23.388702 -0.749747 -0.317633 -0.580507 
16.618305 8.775491 23.096376 -0.779869 -0.330836 -0.531368 
16.484922 8.500705 23.453964 -0.737203 -0.312418 -0.599105 
16.390497 6.167378 21.723785 -0.863222 -0.253117 -0.436783 
17.226265 9.609653 25.967316 0.006072 0.941079 0.338132 
16.848732 9.593316 26.000973 -0.022432 0.973709 0.226688 
16.657564 7.624485 23.497911 -0.695203 0.327799 -0.639719 
16.811321 7.569471 23.276911 -0.708382 0.436784 -0.554451 
16.599775 9.965311 23.076717 -0.167806 0.983346 0.069797 
16.511312 5.644132 21.728601 -0.863840 -0.078146 -0.497668 
16.381655 5.662106 21.936956 -0.844086 -0.054822 -0.533398 
16.487097 5.416165 21.754820 -0.813998 0.223601 -0.536106 
14.275828 4.473803 21.035042 -0.079411 0.996440 0.028288 
16.342033 10.566906 18.532761 -0.084656 0.978757 0.186731 
16.490858 10.554457 18.675137 -0.093955 0.979388 0.178807 
16.386965 6.607151 20.647976 -0.860264 -0.398384 0.318177 
17.099928 8.880643 17.199854 -0.146049 0.969932 -0.194683 
16.442587 6.662055 21.060696 -0.959436 -0.276734 -0.053854 
16.426027 7.078114 20.481714 -0.495101 0.859596 0.126368 
16.705830 7.870717 23.483316 -0.714047 -0.098381 -0.693150 
16.605377 9.603111 22.567490 -0.796939 -0.345661 -0.495386 
16.562246 6.226882 20.740408 -0.918628 -0.312347 0.241998 
16.471689 6.498493 21.302654 -0.898207 -0.364086 -0.246304 
16.552816 5.892059 21.551289 -0.887850 -0.219310 -0.404506 
16.583008 5.088195 20.512226 -0.832954 0.452363 0.318679 
16.933733 7.525260 23.071135 -0.702269 0.508948 -0.497784 
17.127176 7.433045 22.651142 -0.407034 0.873685 -0.266455 
16.418024 6.660578 20.854416 -0.944693 -0.279073 0.172259 
16.984213 9.776233 24.694092 -0.049015 0.990766 0.126416 
17.086262 9.837422 24.253813 -0.046920 0.990727 0.127511 
17.152931 7.282861 20.357420 -0.358755 0.930437 0.074717 
17.065403 7.282054 20.017708 -0.363886 0.925501 0.105048 
16.428383 9.411893 26.290358 0.150106 0.538996 0.828825 
17.376043 9.500609 26.068167 0.131488 0.590213 0.796467 
16.754927 9.719645 25.046291 -0.048938 0.990744 0.126618 
17.104433 9.343377 26.198505 0.180628 0.386107 0.904597 
16.439869 9.759562 22.755104 -0.923208 0.224106 -0.312192 
16.483025 9.788006 22.644184 -0.870972 0.174356 -0.459355 
16.847353 7.250821 22.181818 -0.273848 0.954960 -0.114279 
16.527752 6.436290 21.073988 -0.946586 -0.320468 -0.035719 
16.461226 8.588861 16.035379 -0.169318 0.812840 -0.557335 
16.910200 10.643548 18.228521 -0.043284 0.990070 0.133749 
16.468790 4.903054 20.742491 -0.659427 0.751751 0.005183 
16.643353 5.084522 20.717247 -0.834205 0.526903 0.162713 
17.178614 8.982876 17.351469 -0.152511 0.710778 -0.686684 
16.473534 9.926182 22.941938 -0.530488 0.827443 -0.184174 
16.730501 10.002802 22.738718 -0.239023 0.970861 0.017219 
16.823467 10.031396 22.513239 -0.395521 0.916114 -0.065560 
16.770088 9.995721 22.541599 -0.618308 0.740030 -0.264672 
16.627893 9.865785 22.464928 -0.719883 0.572911 -0.391844 
16.572983 5.553812 20.263311 -0.820419 -0.098971 0.563132 
16.597265 5.833050 20.472422 -0.898811 -0.259315 0.353405 
17.400112 9.648182 25.815138 -0.039950 0.987924 0.149703 
16.708595 9.661756 22.355923 -0.814145 -0.277149 -0.510251 
16.586777 5.390456 21.587734 -0.852260 0.228732 -0.470463 
16.691545 5.370471 21.355572 -0.931090 0.211962 -0.296891 
16.525909 9.913498 23.470070 -0.076189 0.989092 0.126064 
16.585058 6.233601 20.887045 -0.950662 -0.297942 0.086443 
16.640472 5.882243 21.335732 -0.937480 -0.228269 -0.262726 
16.695211 5.824999 21.100481 -0.973649 -0.210301 -0.088213 
16.947943 7.218444 21.515516 -0.268220 0.962017 -0.050801 
16.569176 5.323098 20.262827 -0.728013 0.376160 0.573149 
16.579504 7.116063 21.235834 -0.240037 0.970483 -0.023352 
16.669750 5.816189 20.686571 -0.949739 -0.231466 0.210759 
16.568399 5.291228 20.293026 -0.777303 0.410953 0.476359 
16.662453 5.314845 20.485405 -0.929768 0.183186 0.319335 
16.664557 5.559853 20.476816 -0.939715 -0.096822 0.327966 
16.823492 10.678130 17.646187 -0.116456 0.917924 -0.379281 
17.184858 7.273522 20.996859 -0.317361 0.948287 0.005818 
16.613293 5.605137 21.548452 -0.902472 -0.079194 -0.423405 
16.928583 10.023844 17.452959 -0.120147 0.037438 -0.992050 
16.745480 9.419483 22.473661 -0.796793 -0.352432 -0.490829 
16.910055 9.840215 21.992504 -0.898606 0.037918 -0.437115 
16.636160 9.977580 22.978638 -0.214253 0.976318 0.029996 
16.841000 10.025002 22.724104 -0.155751 0.985548 0.066615 
16.639610 8.627103 23.156647 -0.774537 -0.332439 -0.538123 
16.979527 8.439025 22.779224 -0.779197 -0.342243 -0.525092 
16.850494 8.064077 23.196846 -0.802829 -0.337152 -0.491725 
16.640398 7.291795 22.830965 -0.297792 0.939075 -0.171631 
17.182163 7.399410 22.442810 -0.320206 0.929770 -0.181650 
16.704121 5.188791 20.876404 -0.945904 0.322028 0.039556 
16.717312 5.316408 20.704973 -0.970248 0.161442 0.180432 
16.645313 5.122319 21.147346 -0.809879 0.539620 -0.230016 
16.745331 5.329660 20.945112 -0.988426 0.148696 -0.030046 
16.721794 5.555343 20.694016 -0.981396 -0.080891 0.174122 
16.990702 8.749896 16.248335 -0.165901 0.968640 -0.184969 
17.298836 8.783031 16.143715 -0.170859 0.965300 -0.197494 
17.117878 8.693307 15.990177 -0.168650 0.845393 -0.506822 
16.666971 5.095852 20.933086 -0.827796 0.557158 -0.065798 
17.600719 9.616600 25.926380 0.073334 0.809607 0.582373 
16.685293 5.866255 20.887291 -0.971056 -0.229344 0.066725 
16.675772 8.559603 15.953061 -0.175279 0.733991 -0.656151 
17.345320 8.683833 15.901660 -0.178689 0.778388 -0.601816 
16.682623 9.952485 23.273026 -0.078796 0.988850 0.126358 
17.152250 9.929308 23.585073 -0.021225 0.990749 0.134040 
16.946188 10.026520 22.846106 -0.083048 0.990102 0.113142 
17.012516 9.626553 25.848860 -0.042500 0.989089 0.141057 
17.214197 9.679271 25.530659 -0.044562 0.990237 0.132076 
16.695961 5.583508 21.341541 -0.965022 -0.079356 -0.249871 
13.306134 4.453221 20.954063 0.059581 0.997841 -0.027619 
16.743505 5.575264 20.976929 -0.996325 -0.083028 -0.021060 
16.884193 7.836260 23.281868 -0.798089 -0.046155 -0.600769 
16.953094 9.675051 21.926603 -0.864379 -0.205759 -0.458817 
16.889442 9.587024 22.104736 -0.805061 -0.363919 -0.468444 
17.153713 8.863373 16.906347 -0.159932 0.983272 -0.087164 
17.021511 8.787955 22.479424 -0.788913 -0.351408 -0.504111 
16.824055 9.492294 22.287724 -0.802985 -0.358024 -0.476480 
17.421402 8.937334 17.249920 -0.155474 0.941625 -0.298615 
16.811914 10.013770 22.462162 -0.588714 0.785600 -0.190392 
16.808809 8.076094 23.263233 -0.786774 -0.314042 -0.531380 
17.160477 7.759021 22.864574 -0.827526 0.171040 -0.534740 
16.799873 9.939705 22.288460 -0.707802 0.618413 -0.341441 
16.962564 10.029567 22.064129 -0.684955 0.680809 -0.259493 
16.813168 9.361411 17.440088 -0.115881 0.048019 -0.992102 
17.346029 9.380964 17.376453 -0.120442 0.043727 -0.991757 
17.014668 10.079633 22.267647 -0.150561 0.984901 0.085447 
17.134407 9.245735 21.949429 -0.805405 -0.368323 -0.464393 
17.201555 8.809465 22.173752 -0.797337 -0.362689 -0.482401 
17.218128 10.123674 22.185955 -0.134944 0.985979 0.098162 
17.213737 7.372122 22.233448 -0.313121 0.940215 -0.133982 
17.223923 7.326801 21.835949 -0.327632 0.939919 -0.095970 
17.030754 7.805583 23.073347 -0.820804 -0.003043 -0.571201 
16.887680 10.691495 17.818558 -0.038185 0.992137 0.119190 
17.083002 9.696139 21.676514 -0.807129 -0.384189 -0.448265 
17.001070 9.921398 21.787922 -0.888158 0.255707 -0.381824 
17.154125 9.781005 21.473783 -0.867769 -0.298681 -0.397199 
16.914801 8.541285 15.861095 -0.185830 0.751746 -0.632729 
17.397127 7.683660 22.459770 -0.817584 0.306324 -0.487568 
17.038427 7.479089 22.859812 -0.662856 0.604044 -0.442440 
17.235853 7.307588 21.536346 -0.329245 0.942935 -0.049716 
12.442245 4.701628 21.586721 0.149452 0.942844 -0.297842 
12.753385 4.596184 21.417490 0.150570 0.942827 -0.297333 
17.404949 8.135617 22.336987 -0.793863 -0.343985 -0.501454 
17.207701 7.961708 22.751930 -0.795540 -0.276456 -0.539156 
12.278031 6.064130 19.054577 -0.175340 0.320664 0.930822 
11.633601 6.114493 18.897799 -0.221958 0.372748 0.900996 
12.127589 5.676391 19.207634 -0.083673 0.512265 0.854742 
12.454227 5.455181 19.355469 -0.052028 0.500646 0.864087 
17.461737 9.757914 25.017910 -0.047656 0.990524 0.128807 
16.998259 10.006557 23.016460 -0.041737 0.989483 0.138497 
17.212831 10.086658 22.488062 -0.037674 0.990030 0.135727 
17.011179 8.790314 16.479017 -0.158363 0.976363 -0.147090 
17.543915 7.906198 22.262697 -0.836201 -0.166262 -0.522614 
17.037943 7.301700 19.804375 -0.365497 0.909590 0.197630 
17.487030 7.639183 22.258965 -0.833715 0.326235 -0.445522 
17.058435 9.971751 23.271969 -0.032354 0.989088 0.143730 
17.225489 10.047555 22.762793 -0.012532 0.989403 0.144657 
17.345825 7.463018 19.785051 -0.689678 0.680450 0.247652 
17.453005 7.468742 20.184301 -0.720593 0.663368 0.201712 
17.398781 7.466545 19.986814 -0.719315 0.669569 0.185104 
17.540890 7.429795 20.775518 -0.555931 0.827670 0.076837 
11.944134 4.655156 20.436895 0.076405 0.934533 0.347577 
17.270361 9.613904 21.393375 -0.843477 -0.376704 -0.382937 
17.376152 9.289413 21.482628 -0.818835 -0.379666 -0.430538 
17.261057 9.272263 21.703733 -0.809597 -0.372559 -0.453601 
17.693819 9.833504 24.505989 -0.045823 0.991141 0.124656 
17.261850 9.885498 23.940836 -0.011674 0.993380 0.114280 
17.292809 9.369743 26.149637 0.180628 0.386107 0.904597 
13.600044 6.207807 19.219679 -0.180007 0.141293 0.973465 
17.338404 8.984447 21.804228 -0.804043 -0.373178 -0.462874 
17.238911 10.012313 22.999056 0.039563 0.987272 0.154043 
11.914549 5.256716 19.501701 -0.026739 0.653727 0.756258 
17.158480 10.090986 22.433382 -0.071077 0.990192 0.120286 
17.349993 10.153014 22.050013 -0.092274 0.988184 0.122382 
17.670866 7.872674 22.063835 -0.862890 -0.139607 -0.485727 
17.196550 7.286220 20.597805 -0.316644 0.947837 0.036632 
17.203201 9.937448 23.518349 -0.034126 0.989886 0.137698 
17.636568 7.469460 21.621420 -0.455444 0.889299 -0.041460 
17.604940 9.681193 25.639666 -0.044380 0.989994 0.133952 
17.085213 10.101291 22.200909 -0.195001 0.975589 0.100998 
17.302595 10.170474 21.836477 -0.118732 0.986186 0.115500 
17.376368 10.111697 22.338587 -0.006647 0.988207 0.152978 
15.141960 4.707089 21.973848 -0.139494 0.942891 -0.302488 
15.175480 4.797202 22.220631 -0.166424 0.918023 -0.359913 
17.582035 7.437689 21.195244 -0.525328 0.850768 0.014955 
17.394516 9.998986 22.998753 0.255123 0.937056 0.238408 
17.423859 10.081806 22.530046 0.028904 0.987007 0.158056 
17.305931 9.976260 23.187372 0.247226 0.957991 0.145369 
17.450432 9.895467 23.761576 0.240859 0.970190 0.026793 
13.355128 6.347851 19.154453 -0.188642 0.129840 0.973425 
17.281633 9.363403 20.843042 -0.776984 -0.331688 0.535050 
17.430944 9.280658 20.999010 -0.783566 -0.322162 0.531260 
17.399563 9.493586 21.085707 -0.877564 -0.420984 0.229465 
11.805161 5.495326 19.291574 -0.145889 0.576107 0.804249 
17.430883 8.803586 21.789179 -0.801829 -0.372462 -0.467271 
17.327873 7.620777 19.501097 -0.762181 0.541782 0.354333 
17.317091 7.560343 19.562151 -0.721037 0.585202 0.371003 
17.506546 9.125589 21.373167 -0.856964 -0.389362 -0.337653 
17.558472 8.786638 21.581167 -0.813515 -0.380107 -0.440128 
17.484522 10.052941 22.649565 0.111105 0.977433 0.179667 
17.487289 9.997389 22.873306 0.446823 0.844977 0.293875 
17.465103 7.750105 19.763735 -0.954868 0.173422 0.241146 
17.592930 8.999015 21.079159 -0.866239 -0.338759 0.367250 
17.533339 9.203130 21.172083 -0.917892 -0.394759 -0.040490 
17.280584 9.705824 21.180485 -0.886444 -0.462168 0.024854 
17.400118 9.407537 21.283838 -0.873846 -0.416261 -0.251235 
17.404739 7.944883 22.464527 -0.812359 -0.249834 -0.526930 
17.719492 8.112301 21.844772 -0.813686 -0.326439 -0.480991 
17.422268 7.859439 19.620445 -0.970774 -0.214675 0.107297 
17.551527 7.756420 20.113882 -0.953449 0.157105 0.257395 
17.533962 10.146079 22.128141 -0.007188 0.987733 0.155990 
17.701448 8.454726 21.603596 -0.823615 -0.380836 -0.420265 
17.447384 9.086808 20.911728 -0.781475 -0.319766 0.535767 
17.473879 8.883732 20.826231 -0.794183 -0.348644 0.497716 
17.569262 9.837129 23.834623 0.584925 0.783846 -0.208443 
17.453232 9.892202 23.383408 0.637877 0.769439 0.032815 
17.769186 7.742840 20.744932 -0.921018 0.185925 0.342283 
17.695238 7.748077 20.551125 -0.921565 0.153031 0.356791 
17.468060 10.208291 21.697025 -0.122588 0.985216 0.119675 
17.484514 9.920147 23.099619 0.456803 0.855762 0.242904 
17.503141 9.853187 23.304258 0.813655 0.549353 0.190200 
17.649664 9.900809 22.837696 0.757047 0.540470 0.367114 
17.620962 9.946992 22.808826 0.592627 0.727729 0.345259 
17.569071 9.722455 23.364965 0.887175 0.458807 -0.049163 
17.588591 9.670390 23.258549 0.922954 0.374584 0.088555 
17.600689 9.762461 23.058500 0.910360 0.274420 0.309739 
17.634474 8.898667 21.273224 -0.899395 -0.376373 -0.222332 
17.512871 7.478230 20.381792 -0.723983 0.665041 0.183218 
17.835133 7.726334 20.950216 -0.897518 0.344261 0.275581 
14.319272 5.002825 22.828671 0.016879 0.898617 -0.438410 
17.521025 8.002995 20.153866 -0.931842 -0.273369 0.238622 
17.472729 8.000993 19.952475 -0.963314 -0.156938 0.217706 
17.623661 7.761575 20.363323 -0.938124 0.085148 0.335668 
17.521051 9.887537 23.835768 0.437555 0.880480 -0.182484 
17.741598 8.679968 21.178917 -0.943533 -0.318803 0.090052 
17.537182 7.459260 20.577518 -0.654141 0.742295 0.145253 
17.895947 7.720393 21.169468 -0.841505 0.514383 0.165165 
17.555294 9.871338 24.039598 0.166525 0.985700 -0.025802 
17.600889 9.864777 24.085377 0.224417 0.972756 -0.058167 
17.597029 9.738420 23.634731 0.854294 0.468282 -0.225598 
17.764524 9.793236 24.040855 0.418465 0.884084 -0.208046 
17.571968 8.019515 20.342018 -0.910947 -0.257488 0.322298 
17.647654 8.024171 20.533503 -0.885308 -0.240593 0.397925 
17.576487 8.269469 20.572140 -0.838373 -0.326707 0.436340 
17.627699 8.778112 20.993643 -0.837591 -0.310377 0.449563 
17.392181 8.609473 20.483961 -0.830123 -0.350141 0.433933 
17.655052 8.583416 20.919764 -0.855894 -0.282587 0.433117 
17.577896 7.442080 20.987658 -0.550635 0.833668 0.042427 
17.759848 7.824075 21.854809 -0.914591 0.050878 -0.401167 
17.583696 7.438161 21.406931 -0.431735 0.901948 -0.009797 
17.611641 9.644598 23.501373 0.924632 0.362146 -0.117921 
17.740278 9.303793 23.392702 0.921917 0.380362 -0.073444 
17.748455 9.766876 23.940649 0.643788 0.645183 -0.411431 
17.714905 9.599087 23.755579 0.831536 0.358416 -0.424365 
17.722824 9.336766 23.189859 0.925825 0.356916 0.124333 
17.603168 9.861352 24.247477 -0.020090 0.994506 0.102732 
17.755436 9.748667 25.200861 -0.052429 0.989569 0.134181 
17.696394 9.494436 23.605120 0.882873 0.379926 -0.276027 
17.905794 8.957930 23.532396 0.909863 0.385717 -0.152880 
17.721994 8.643878 21.355131 -0.896991 -0.359030 -0.257886 
17.827766 8.008375 20.907930 -0.894433 -0.167941 0.414471 
17.868977 8.038193 21.633169 -0.898284 -0.300219 -0.320865 
17.792080 8.252879 21.611231 -0.873563 -0.342858 -0.345450 
17.761499 9.583990 23.824547 0.781897 0.367586 -0.503505 
17.799068 8.415369 21.375608 -0.943636 -0.296518 -0.147065 
17.891867 8.955389 23.087456 0.886535 0.331423 0.322823 
17.725588 9.491747 23.005424 0.865573 0.325148 0.380870 
18.009445 8.902222 22.877981 0.851282 0.319999 0.415835 
17.859493 9.007710 23.346924 0.917697 0.384786 -0.098851 
17.775684 8.503814 21.118008 -0.934486 -0.267492 0.234912 
17.918734 9.513893 23.986111 0.731143 0.356514 -0.581659 
17.929474 8.018662 21.126261 -0.958652 -0.159679 0.235562 
17.842356 9.158154 23.607918 0.881679 0.380365 -0.279222 
17.906750 8.016738 21.391823 -0.951061 -0.283468 -0.123000 
17.854807 9.151348 23.002840 0.859462 0.323254 0.396020 
17.875439 9.632584 24.000259 0.659126 0.321474 -0.679859 
17.906544 9.258107 23.818739 0.758143 0.347271 -0.551926 
10.845492 4.661456 20.778177 0.005747 0.995506 -0.094520 
11.219641 4.681815 20.989386 0.064285 0.971165 -0.229577 
10.870132 5.694085 18.818308 -0.579315 0.376012 0.723193 
11.153626 5.483917 19.079325 -0.289226 0.597205 0.748127 
10.800466 6.066325 18.553358 -0.654449 0.287779 0.699200 
11.141888 6.653966 18.538059 -0.310598 0.521365 0.794800 
11.117045 4.653464 20.707840 0.017098 0.999654 0.020004 
10.921618 6.269716 18.573856 -0.477296 0.291326 0.829047 
11.258269 4.656278 20.547312 -0.008410 0.991201 0.132096 
11.452769 5.345172 19.303190 -0.261328 0.589709 0.764167 
